-4.821883486492563 13.392352658468365 1.1253843545683617
-3.768246274386825 14.529630612149607 -3.067104170205875
8.15613289136308 16.809193939680043 -0.01100324263096919
-3.604502978252923 14.433769682603616 -3.2937552508776013
-2.481880390205097 12.172199869144253 4.919061886893011
3.035711564216302 18.1026696487911 -5.4504842837218135
7.7372305896516345 13.50093621345301 4.473699492720009
-4.415671970847455 14.847653113483595 2.6706211287489072
5.479235321072233 18.37245869598817 7.581466684214256
-4.142999809837618 15.686574067032424 -2.4826506288318573
-4.578238634722964 8.68395776436023 -1.549545899446768
-4.722181468794867 9.844322351970131 -0.9608830589276423
0.09074257251118834 14.8935415872086 -5.606452089905934
4.071518860616716 13.812674631423697 8.493862889111643
1.2216757429405707 14.755583775341607 -5.710055600406605
3.066567317618728 18.85037547114613 4.687578372363685
3.511578819451576 11.22688575769545 4.278027907302427
0.7568827024624323 7.115415039722947 5.642564403408883
-4.345859200536624 8.948046861820062 2.754573895201765
4.532849339267838 7.726643264803906 -4.879342589856877
7.983255541281833 18.28044747872495 -0.8859711980949818
7.540117905722701 11.862926272661436 -1.8670901468682013
3.8268272862380392 8.086962498328926 -5.1933698808713
3.2777545854135344 7.434723710810246 4.505257327683172
-2.0376459660843125 14.85027606312093 5.088144020603344
0.04712769555396745 16.385568951480337 -5.556081510138553
4.559142374982817 19.065514437137182 8.250347478873419
6.103961222247731 12.843055350109806 -3.7350368725411567
0.7435582565873848 12.22474286317263 5.644663454667818
1.3602967373573032 19.2294856158475 9.392602233684663
1.6706298991007307 14.7798024860088 5.435994492832102
5.101624609155989 8.999574884909293 -4.573829906398188
3.935689392791203 9.111142768544049 -5.203661995416386
-3.934065950632193 15.333923119706563 -2.895575818710668
-0.8114206089022176 14.383428869348078 5.557133828471096
2.331643515121625 8.16592001539739 9.171009457267743
1.8472833887812996 14.971003142675993 5.409173350942688
6.82834355101024 7.905484439129344 6.17665577178049
3.7369886072186143 19.368357315702948 -5.280874718764238
3.3608552468200488 13.485266674912776 4.384952112650343
7.847351443060839 15.962429929121376 4.383307854371043
7.62641508386371 14.93981596789636 -1.7197967356743566
7.84012967608766 10.863696422969607 4.205453297139202
-3.3763763098200767 16.03964119570084 -3.5965115210196767
-4.182224415870505 15.47196023152401 3.0854297320164186
1.2694417424248394 17.828972504243538 -5.690594348156601
0.9511122323615493 9.312730833735072 5.655957616047862
1.8046946507613084 14.462770187759588 -5.687938746027488
-2.075457273649083 7.685105205051485 5.1049692521416725
-4.64865451014969 17.530036359319773 2.046486035046249
2.578723257283867 18.14713283438829 5.068669135623021
7.442050888169744 16.07872953575553 -2.012482473191345
2.9088646123040585 8.33454697303496 4.847423199454416
-3.2754643755766013 7.238956257275111 -3.706375587202132
7.493967785934062 16.61196015278493 -1.9172590148690984
-2.7434120995671565 15.285506959510489 -4.196808119512978
4.681309577547202 19.014269028253874 -4.792973007467525
3.653569866139015 8.120189376058198 4.089009029195981
-4.880545947508347 13.339821565695804 0.9308367355110576
1.6148899641605272 7.947148689552909 9.325622007499595
-3.6708872762346134 11.349703090266473 3.704965522475704
-2.3170825852302634 17.03096426244391 -4.516453737432149
3.675450216648188 12.714866034910223 -5.311359328417627
8.288288521591605 11.080865960935387 0.606765861236032
-0.04440737095012137 16.902475291530607 5.682409708233009
7.976926637669708 12.04504649755053 -0.8198440534067295
-4.777184526704719 17.081114243599377 1.4134703136222413
8.01830618019768 18.77017128305859 3.8389978100467017
-4.85413495536096 9.661045180081093 0.9558145825106297
6.980638659178062 9.896933636800977 -2.735525939128154
2.3222772284055866 15.768213955430047 9.15009726923795
1.2574574832945844 12.142369398873244 -5.636017416323499
6.259278312491887 18.33914316731375 -3.6365845588973134
6.444271400819181 10.729267475630673 -3.4357553634721345
8.331445519507382 19.11106413178069 0.5649594815067109
-4.288730758196072 17.142155035905333 -2.248880392721892
-4.791640069078763 9.019964339487236 1.2966234233058773
5.365981496081323 18.322718151282082 7.67202940593463
3.694437993239389 17.21889513721527 4.035933604178067
-4.8598902647897795 16.84176879537386 0.6427227097483743
-4.661082768570867 14.136693082613187 -1.2875634592152787
-0.9361692928217122 13.855171150185987 5.528992033264239
2.529109486997351 11.841103411863415 5.131811950819315
7.826171338184549 9.219912677384606 -1.2522018603073883
1.5678993110205397 10.218505352790338 5.475618711902386
-4.824758031513367 9.88751919436081 1.3695064994646362
8.094400668642043 17.7790239024576 -0.560753147233318
-2.3456267464941014 11.075913835912566 -4.552942341219019
-2.5753856674121645 16.264776506514927 4.844207821358616
-2.0417180510032695 9.421075350324323 5.076641202447586
-4.688207458690677 19.003221547666655 1.7123879305739442
1.5642849706811486 19.216967162268922 9.330896284314306
2.741607236745847 7.475694405526211 4.917402964726649
-0.6611384384239054 8.60537027731354 5.6164820267081925
2.7803467482673865 13.827162500662231 4.925809528735298
7.635505366963098 7.910796779283455 4.810429889798733
7.079885833712966 7.446730340915984 -2.536865466080303
8.338442775711812 7.507741272290453 2.107183597739821
4.136610554745694 15.098613314852935 -5.049636986419509
-3.9119954518553257 15.007241587213663 -2.8694577721912253
6.989012790320116 18.79203294971922 5.874453150361246
8.01059917688696 12.104394140655714 3.8522064962506617
8.34866104879136 18.122836964738774 1.636576635114856
-0.8756600565789228 19.04243406279372 5.573654991541289
1.0318503230203202 17.41798717216857 9.421040935957821
8.176238323035031 7.0161965119917475 -0.17452658130793175
-0.9621462420469609 10.308822388369796 5.5091087010043385
8.06538087609935 13.754018409514057 -0.5477108973456142
-4.78903245219621 7.994297376420011 -0.6019452046131022
3.8527350075056654 7.567793430301476 3.8563993708083792
7.604760922860752 18.33523937764868 -1.8004419472922777
3.5304064209871235 16.6867259690892 4.361737464647156
1.277267997968898 8.795865973320517 9.418079226886919
0.1440902544992002 14.904237461496535 -5.585823639717773
1.991032090184075 7.75641895307634 -5.648177844285552
2.054727298561085 17.13239097687359 -5.644794396289365
-0.7366998087734844 17.11697120137476 -5.299285721652696
3.960620918323052 11.995979048428685 3.747810072763248
8.07591842523687 16.555861100690528 3.6107878868205425
4.974636834988668 16.46697724291858 -4.625763878479136
2.235549424194404 19.08088698260831 5.188791423857319
-4.181421654160291 7.540047176724883 -2.393977485252398
8.255925826646116 9.434518226850216 0.46746709061109915
-1.4706853184056534 15.169578544371047 5.442037931909944
6.6449355185069745 13.408162594283528 6.377942799020904
3.5496542145810253 19.510149576154138 4.272600501611865
-0.027340473893009865 15.6321120135372 5.629261306372596
-3.5238270744658298 9.636088929412509 -3.3374611426570553
1.1852335475008102 12.606652742612699 -5.66455590704898
-4.278462925986714 16.981984676879257 2.8990875726094067
5.363596781460821 10.950366726519539 -4.391011691165286
-4.8128773315366296 12.791728239949936 0.8862529431846355
3.0530084970358065 12.332195044568987 -5.439544192932896
5.505498853381262 15.631740591580382 -4.351624535070851
-4.846103009879535 12.632878999363587 0.9012708817744781
3.166238643347774 14.412631745900349 -5.430530871950825
-3.947434612143476 8.490886641230848 3.521154477325716
-4.899032161993217 18.058266089527773 0.6633416751295238
-4.792055077184688 11.07546920534974 1.4993991223571919
-3.4620038580622268 16.660563870565987 4.056786934135856
-3.8075387287019193 16.90265213832189 -3.0357823002782007
0.40634279985391997 11.897218668378034 5.722801891941605
5.342212043405867 13.606287351579773 -4.43481064292661
3.5749044923612416 18.84888626942016 8.700917021741624
4.898410579575032 14.807643348395622 -4.670552983925843
8.339216628009751 7.157760339992237 1.3974786051035788
-3.590745032170539 17.349200286087584 3.8996710682263442
5.85800465527767 10.413678097205459 7.239910732926811
3.448669598967026 9.104851032670897 4.350617627199805
6.374534136069563 10.000012942017912 -3.4753241288747887
5.801140273083176 10.888150794164932 7.268747089974891
1.1748091016361304 7.48222109807206 5.537905950524214
3.6392968847677185 14.460055530835731 8.734759603612956
-3.7807135950361435 17.18405401789949 -3.0937699769460503
8.167734884207265 16.662263088486075 2.8332833599034277
1.8741359319743172 7.787691751195304 5.359541529556303
-4.137277172154015 17.270115603436146 3.237010190396516
-4.879360442117413 19.120291660553512 -0.0585160122131958
-4.7013052068621395 7.5791976203066636 -1.1545615297010121
2.423699574357573 11.609644764032154 5.134631441868339
1.8827159063548038 15.127308333956636 5.35841684448313
-3.037099686934381 15.06599382615622 4.456693984428324
1.2368674357763165 9.055702444908746 5.540059963079276
-1.9767347082870286 13.468932262516265 -4.810014564485634
8.218379587219514 8.99738254157466 2.8701174123466364
-4.767672674734662 7.434310787650579 1.3499289669270724
5.57102840342572 12.003590512632051 7.531053874812615
7.997845235011011 14.120364852354687 -0.8350708109777925
-0.739997455018325 7.922720881692323 5.559254583149099
0.9082655918822682 17.622022627209095 5.666096160894611
5.282942249929674 12.198339255971595 7.731410415759356
-1.0575970801703907 9.057661825817846 5.513294834096969
-1.0155006802659585 9.370887955844747 -5.239731048201243
1.9411252170629139 15.35856924623054 9.234048638783552
1.6477403730712012 7.792670005324821 5.4710985682079984
6.176221241878425 12.741471281104442 6.8643360375603795
-4.469547644555145 11.363793797661124 -1.8171893845246947
6.087794489672364 14.894532849836907 -3.796541516591942
1.9001789300337313 19.49056317401681 -5.671198131713863
0.5828259628053352 7.46697235264967 -5.656806137997544
4.160852368675644 17.441951327515987 8.472295182136502
7.96930012559964 16.33109937526761 3.9017596032284603
5.950344767785111 19.4216288378297 -3.911490835562093
-4.084004842869449 15.195340200340892 -2.682410711474513
0.5615449242065171 8.721032600606161 -5.691073135030134
-4.854259150826213 16.324471293243054 -0.5872504867056438
-0.5276873540239326 7.363673709753156 5.654875676451674
3.31051305948258 17.512595714970892 8.874045978771388
2.629900361933454 13.245251200410717 -5.569879485043238
-0.8068133202630801 18.86703041346346 5.5583838039841815
1.0817072459920185 8.87158485904096 -5.69058101145168
3.4373275785906863 15.275639736578702 4.346272974620254
-4.8145342402861395 14.579494168271088 -0.5624266895398673
2.5837229159367574 13.296693108207823 5.071716347963013
-4.650514245775149 18.03256115052609 1.9176611164249868
7.126052337920489 19.507289129321393 5.692381610665548
-0.11879668415459621 17.75262715990184 -5.5217709301991995
4.297195076995024 12.975548041747217 -5.015909870379428
-4.605934329617661 9.12016454653236 1.980060386775199
-2.3952270605467856 7.3290929711921216 4.972954862530512
-0.3853777730608874 14.897822853455743 -5.429262069372513
2.6402671840483656 12.465414736379884 4.9795435028478465
-1.4164004678345226 17.71491743955048 5.384290797250584
2.2648625909492095 16.4450463850999 9.189151031933008
2.6987487284380203 11.5717602498113 -5.588100870339172
3.738244791712786 11.664362305515787 -5.26115743925974
7.273953198990217 11.493506189969906 -2.297195517798067
-1.3349373098290114 16.47634653885214 5.457267562108957
8.32067285243687 10.96159488302062 2.308629471711292
2.6949587724834627 13.107225234598385 -5.571195625897229
3.6950350577332696 14.383621673845767 -5.287573729872744
8.23034609521139 13.798171767560858 0.10332325416133781
-1.4580180845177315 18.633321177164976 -5.049429922134371
-3.1326920642482206 16.31519792358339 4.459438824513937
-3.051329493625243 10.055274702274172 -3.9111095630337775
-4.184719333750545 10.620613364845074 -2.4311153107793233
-2.8327776886226586 15.381313420547238 -4.152576636695169
1.211027089620079 17.790666290322058 5.582464425324714
-4.393465985653977 15.536976011684164 -1.962847204937379
-0.23324501472020254 8.23213051085939 -5.512005507562112
7.9911046504475305 15.373887250255056 3.929520317288973
2.490352509436435 12.342990378518952 5.119166700685601
7.761897120646335 8.86002246493613 4.605824926584817
7.725722081861566 19.6450901468033 4.515555126225179
8.334272744543355 9.29924729532116 1.0926953198907388
1.0547293358463863 12.771745892995375 5.58823095162598
7.104645361803181 11.348195411020887 5.6727692767164
6.8008224189233655 17.849974021595816 -2.990153654096795
0.2741432479641537 13.633592687610875 -5.598059860686538
7.137704925070457 19.469424390910532 5.589096417631825
7.201589051774407 18.903647312179803 -2.3933618818546636
-3.1955967490317247 12.210513199113326 4.396316873032275
1.1814841947482035 14.592640729723534 5.583555317006471
-1.943301625099993 7.028372423161743 5.1871570445127375
-0.5700302097910743 10.455776242268804 5.608903354685763
-0.09008197651935257 10.336607892025999 5.679970008422925
8.121897508762975 11.615212885676629 3.226928439588537
7.620326037933692 9.372603589523155 4.813521094193079
3.610216820565272 14.704025782020945 8.702111620546795
1.0144927235348087 12.801129109205817 5.605022531450966
2.4634953834935125 19.00981106917435 -5.596252675341955
-1.2019585633167775 9.305334410741116 -5.1476473972317365
8.107375875316885 17.303598502917286 3.6028413932074814
5.649153546373864 17.537520253463455 -4.185368389227719
4.11396780485759 13.487496207807485 -5.080981044653706
-4.8166989783373815 12.729201712641748 -0.4704306121700954
-3.786775854517047 12.110056407085068 3.631997220581604
7.05175439338149 14.599800367293545 -2.6427234219195714
-0.3720195049098236 7.74440355907543 5.5769116336040545
8.315749607563314 11.138117065475859 2.3257250040865993
3.7474541270538433 9.991545969192678 8.624002407831757
2.4604112818295487 13.138375151792879 9.096814452823317
2.9608073520046387 15.812718005892895 4.757638823693732
-2.7827363287234093 8.02017485817007 4.645026668220992
4.412212691325841 10.223576578308695 -4.978593959813155
7.434878330101043 7.851782014699596 5.274672659274699
3.5952231302233963 9.212481293423766 -5.346547649619733
6.210670383029958 8.614617057813506 -3.705446079508242
7.747646060021774 7.515441084794663 4.48249743619578
-0.6901120336801454 7.825151987782812 5.573284241028442
-4.63162499850877 15.541135219337907 -1.3743004065370448
-4.749893188473489 9.988973222950118 -0.955661573012482
-0.45428441906439954 13.07768282122609 -5.414807521430859
7.409529636488989 13.552969012480895 5.26416890845471
-2.8773490811874787 7.374006762319892 -4.120113571293508
3.1454685050529454 10.2956509834061 8.908357974121898
4.822638243789193 19.669354535146326 -4.858710167764295
-2.765655892694385 18.539575307619195 4.560970984356731
-3.5632073140938703 11.461482258281018 -3.336583160599381
6.201922819297863 14.107389475005874 6.934632858505843
-1.9256481396813516 7.27413152767028 -4.773709065095538
3.4976499536855465 19.5581444814089 -5.349380951471833
0.4582141321136439 7.924977151068626 -5.655318316505124
0.6495171974621408 11.686703796707318 5.664815821787512
-2.4769159021037295 19.05359294552425 4.88505309529925
8.243975604907936 14.37559980072215 0.4352650767866475
3.5305873163532624 9.073617993952274 -5.264456587623666
-2.211571300649627 8.424483454267481 5.035061546648274
8.024863515229052 10.800627716570464 3.9793863214002982
-0.887415212098027 17.92671489639042 -5.254790689255897
0.9957300480620526 8.43186932281887 9.400003462877038
3.9013896529458654 9.400961588549247 3.71617101638536
5.4762455124663525 14.5697261469845 -4.265055377039218
7.825818325960512 14.589084544557236 4.309006030313792
-4.780564980610194 17.501178636805903 1.439150877391599
-4.802325688902238 8.54454248782834 -0.5273967050443469
-2.2065361638112764 8.57228943355748 -4.6305443250730995
7.38334281830519 10.334476005842717 5.325612469998256
7.606844837706753 10.58925941571809 4.829657901226338
8.391918242467613 8.992378370290814 0.8793022416729186
7.096384530506921 17.303772470194776 5.710278136093873
-4.903589964169038 12.519224651130681 0.31207671056600184
0.15063985739761776 19.381274852552583 -5.56726882688562
6.623208557525883 7.892918049320093 -3.1761288766585123
2.052778933100826 9.566639659678664 -5.631271010435695
-4.231893815144822 8.754524565309326 2.973680981290724
-3.8580064121310453 9.361734597298666 -2.8746721780197477
-3.8956843321254597 10.489156824840428 -3.068491349654498
8.375710105755077 10.346583491124878 1.5511818287642245
6.157629303545454 14.520534059367439 -3.7437711099597237
8.077678032850274 19.35008695831659 -0.551950702338754
7.712577831142397 8.698390209665279 -1.5191811909858446
8.016966141152507 15.103236845902472 -0.8157419220524762
8.24801276324099 14.040310860005846 0.7051287741995278
-2.8795923741966156 8.353349692990921 4.560284462010646
-1.9774066976790863 12.632044271960652 -4.751940307916387
6.065878912987452 13.529054577175728 -3.8614280862453327
6.694326288517425 7.175110576953909 -3.1245642664488305
3.918291769456637 18.929553147222503 8.590802987748315
2.7591936011853333 9.933841461097991 8.974664854886317
-4.154166286873798 7.54916231542656 -2.520684116103502
-4.417980894074802 12.890941894312196 2.6848933149065006
8.36906327901382 15.005676001273097 1.0933599439320374
6.578010097082901 15.840542335889719 -3.26879160752933
-3.2123834084020055 15.844212566804325 -3.8049217635715102
-2.5360444185657185 13.278099322515894 -4.357704596333985
-3.7764397927295477 8.820626636607454 3.671658488631371
8.195762993479095 9.294379909024427 3.218522670267898
-4.599035614651918 11.522852754804912 -1.3875584145531166
-4.806640322255955 15.662242970344971 1.353195134448209
-2.872863554443007 18.71521780998888 4.58490100018432
-0.5309491901352974 14.820349334072535 5.648712530731867
-4.132063320244635 18.79518950878129 -2.5610083692302084
-0.7672522887364677 9.0516308163818 -5.272158856222138
6.627568155545637 8.769969594786405 -3.2333258552331134
-1.2270741450523293 12.431639946020745 -5.150107991655911
5.845328181288819 18.040235157279536 -4.041066942647742
-4.5282639956581106 13.5435978566084 -1.6770239785362113
2.2201289485480853 18.967333827305225 5.215170804422858
2.2373282053020347 12.008184203955288 -5.634639305080022
5.593465228319799 16.009008864033174 7.4133522310179245
3.3569883095333735 11.636441312311064 8.813896706600003
6.494913461622895 10.087443463040499 -3.413008252364092
2.463407500668647 16.003626248871523 5.074203595400024
-1.792207535990987 15.835715819202449 -4.862151154745158
5.826575693042832 9.730150305195362 -4.0308701570078185
6.049452618347566 15.176447259172718 -3.7949994155882276
8.129385843126103 9.07788019369841 3.460269209042404
-4.919812601696567 12.552180409755891 -0.1564343708675935
-3.914382120750618 17.24797702168721 3.412420009863622
8.34462009350362 16.51326462849483 1.2375776839128698
4.850377464681819 10.09467129696808 -4.7071931339706214
-4.1442394555667255 8.049304977496613 -2.4715946801448823
1.963981257942363 8.427621485150627 9.242531830711727
-4.02481821231474 10.241191472922885 -2.7196329130965378
-3.4778755174457423 8.323745376400785 -3.50221475330701
7.499941243635448 15.105814042073462 -1.9609143023896793
7.09065249295246 11.83055073854932 5.756425362920546
0.08506805102997417 13.51000938123263 5.688103735025944
-4.3668536749977385 16.770252403698095 2.7226438860582753
2.1563589250109967 16.975174528864798 5.262933606632142
7.048753206849323 9.770687898762846 5.857602724569821
2.7601934282477396 15.942128930154851 9.023390102317077
6.464104633589969 17.192506068205244 -3.445749300859344
5.050853163277568 17.307646256247224 -4.64590886294803
2.0810667655360406 7.458898798109164 -5.6818495580143615
3.0651544159487125 12.015185727606216 -5.449323662506661
-0.9466163500983296 18.22582098758826 5.599220034403049
4.783878635927265 12.57115779380181 -4.817781806112082
8.339160721300784 15.702323110732948 1.9195334106211113
-0.9750480049249415 10.017012261115415 5.539771602637472
-2.311961554690634 17.42707877105455 4.987770654619063
3.011021095432998 8.220630217994454 4.644387408671721
6.024753585879335 19.35011891895753 -3.9049747097924072
1.3376354664909327 17.508955908203504 5.562298899705032
7.7902512750116735 16.839527087417153 -1.288267335614111
6.796074390099287 15.353802666789239 6.317101929290331
-4.820698983172447 7.278933914750423 0.14212687314962125
-3.400020197943231 18.846483207511117 4.180761375834816
3.1683484403628697 16.0144701932119 4.661252795450166
7.636737985074298 7.317531422681585 4.746823785404669
3.897246944612938 9.288439343986417 3.8283463346183604
-1.8813013775830818 8.620019613632824 -4.767832096387579
-4.815934323104633 17.432335793381597 1.1809855655004085
7.178112649376603 9.54653330657662 5.510622264505522
1.7478838190641905 10.529034780152719 -5.7094087981021
2.927684814456489 8.721268153687364 8.956972016074607
3.4448962008436927 16.075269201666845 -5.333519284291034
1.0814196699803644 18.44172294259365 5.577307075945439
-3.7121658476679125 9.309255752484745 -3.3393881016043654
4.908810860973382 19.18206426789913 -4.719948194011318
-0.36971919479245274 19.00884446430619 5.641010210165287
0.015057166373436015 14.299379804515857 -5.484789046768594
-4.085232050416259 13.727594572181525 -2.5369748921495283
6.2647967340531725 13.637339632405244 6.822860323286852
-1.3431579760183974 15.616973707646014 5.442547604299197
-1.273746187438685 14.079352853967563 5.428182693324479
8.360938340568259 13.858254954913505 1.932977087964486
-4.653299299572205 15.522313755500045 1.714478272026049
-3.9978820045312755 12.121308966960914 3.313582920905139
-0.8223351837526529 9.787012458356354 -5.309512123714841
-4.7557506686808 14.435940331220447 -0.614628971360279
0.9496001356776618 11.996596718230476 -5.655069007530324
-4.758493903156992 9.812020558418066 -1.1718919850060487
3.4147544823804212 10.203960318023327 -5.397062534014072
-2.8972051458192416 13.43684668869021 -4.053593145491302
8.374257543635325 15.176929625555662 1.5431052501531095
7.8331626349662375 19.261226777847998 4.257064133870206
3.5603835126295538 10.552587816997136 4.203118241713424
4.222868787829223 8.788656649463475 -5.093729858856015
6.813238223076031 15.020035765056313 -3.0783764509970464
-3.8241093653905267 11.538585382051773 3.571329285340968
2.5833861659453534 15.27633386772492 5.045629084470625
-0.5523412233701177 9.863799402013324 -5.331261778393447
7.636802134107631 11.985780856950456 4.709548062464295
2.4631935943730117 16.643030820574626 -5.570304797444511
0.8496025692556706 12.329175005960654 -5.675529995305311
8.087076542776414 10.765373026939695 3.4658178051108592
3.7338124374704798 17.952657145135287 -5.299778911439855
1.681556485874827 11.081267022405129 -5.669727463418134
-4.381216223630717 18.707572972997415 2.704013854277818
6.169264988869836 8.17639680224561 -3.722630645688815
1.3930101652183078 17.975712221021517 9.325314982667813
7.55911578623326 13.893714438107809 -1.8075278831219421
7.687801810287226 17.68926052749197 -1.6158953111965388
8.051886743080356 11.864921015920297 3.7311674806672492
1.6447055753169888 15.640913601322628 5.47236471223561
7.722946276152122 14.855880095330571 -1.5444346773189723
-4.121586766490305 8.20201033978128 -2.669526356811998
-2.8063458396230185 18.400016552583338 4.646984952766965
1.5166585740650724 8.32683114507116 5.490469515547008
3.1831034950225217 19.178725856520607 4.570930337176341
-4.536497700046048 13.32166421515123 2.201644074873868
6.054815521839263 19.478924179708997 7.009443956846731
-2.8833583966784424 14.397651634345715 4.615689256137275
2.651233476538706 13.346057910305714 5.003502588857772
8.394573242372596 12.012344500435395 1.7847632520938048
1.8839711842014015 17.950079143393914 5.432304211304578
6.521878905186 11.298693816861853 6.548880807627134
8.244787102103636 16.290731124755617 3.1437297784702336
-0.8905699682509702 8.455618897450853 -5.292123802203356
5.686290777150646 16.681220699920356 -4.107742724148311
-2.7272835059287015 16.63681291461175 -4.217204792236204
1.127928734690995 18.995652434811515 5.572311747201604
-4.780217561577151 8.508066892993442 1.5370475686397755
7.17898242937015 7.965336141226725 5.721794075229534
-2.619717544705849 11.646791153464925 4.732013774639489
-4.606584390291824 13.004609482966774 2.1767926783722173
4.214995870104266 13.65391601357773 -5.051966906433043
-4.8582125992089615 18.533851314745675 0.7776675341551931
8.122764006473313 15.131669263999063 -0.5067889253554592
1.4709850693187994 16.62789639601392 -5.673682350502592
1.3108452334949465 12.030387811699617 5.556644903159443
3.570792260051653 19.402021413526164 -5.321552143256195
5.473852325557035 10.098501067913016 7.5368041882513275
7.3957274683379755 18.95372177939228 5.225923995609718
5.438063025073065 15.638486410639155 -4.325326781829359
3.379156594648668 13.753233576379857 4.44838967692632
-0.9620542884779661 12.760685614238863 5.506036677577267
-4.285399747935081 11.222136779703451 -2.2378561130494345
-1.3779499923088014 15.242879862788774 5.422581516648952
-4.089133095772619 8.31796895520923 3.0951311504545007
7.593917804570049 10.281432281804484 -1.7491009730282938
2.8968131889910698 9.650698344540867 8.998319611843009
3.2275818309796325 17.33739142238995 -5.430546098181363
8.116179261018168 11.449061759525529 3.169898627510255
7.174791311839842 16.283818289389732 -2.480202418447896
-3.4224621863275084 7.254867903448323 4.057782142630002
5.003984087721586 15.823410152088318 7.933165251736055
3.7129700139584347 11.804432641609381 4.007973724966704
-4.66133882505697 8.28566628660841 -1.1803338387672992
8.3479654947006 12.67090511162465 1.0293520508796807
5.5717999880344475 16.005946567078308 -4.1884045421158
3.1763927390562925 14.445793346887957 8.878329665231886
3.3695722450104304 16.307084557804284 4.442557406698574
-1.6849209854464764 14.202752951685985 -4.925576417335565
3.8823859108771925 14.06930320069396 -5.204449318777732
1.1151988563697213 14.06101032304954 5.541935828292907
-3.502057887789028 18.994334801669588 4.024866331393623
4.937542402633847 11.314293668882485 -4.635142056381726
-1.1445668200879897 7.316664222653781 5.503044551009915
1.8802339926772182 16.602528750914242 5.386335955788619
6.474585358509675 16.267158086849804 6.618890839206141
0.20494410898674253 15.965247653246534 5.622016299211278
-4.049074866330619 13.37712627817027 -2.596582093963149
-4.515363840070006 10.836877661589483 -1.605827502387453
-4.003096231731197 18.586469005565334 3.3065158899973834
5.718518498051624 18.804939844110713 -4.171490774649206
0.8833996590420767 7.901521872920831 5.610215295914468
7.555341944085832 14.313831456598002 5.131300888883649
-3.7813436505217455 19.330287427369736 -2.932104948161121
0.5387467573126181 19.402363184809662 5.710569497546668
-0.6099643200871037 11.813324643441966 5.611719946510959
1.9706439043060007 18.597591643886094 5.319833696515779
-2.7216540490552283 9.275649637775528 -4.227371562955881
2.4256361133715743 11.66938256796009 5.107109014046734
2.743209007720348 8.24297428325345 4.897915813649887
-0.9885999295546171 15.645686652292452 5.580604155951257
8.033361828196723 18.746364066152623 3.8079852676069663
4.217823396721697 19.538753265641226 -5.0498956894107305
-3.041151048261143 17.26594982419889 -3.8860773585230906
5.447109741682516 8.373816497310873 -4.299063249769164
7.185086502760678 8.060797867673019 5.683633110477206
2.514990078004101 12.289713108695071 -5.6071420613786636
-3.233175976481241 13.986913375766306 -3.70603962656957
-2.3987504320390602 17.061915511218807 4.93724713641704
-3.656999032290347 15.302857615190879 -3.177755299232314
-2.7299449566359693 11.241437917753643 -4.214970324452192
3.765766246799177 16.934145777944234 8.617309444831026
0.5932039667095732 10.198307426116743 -5.698963788252318
3.663596337755635 11.470640724572004 4.108722486408935
-2.9078858675378045 12.684468544999108 4.5786880844398485
3.006968681964552 13.029461232850693 8.98887764428855
0.8617792115428546 18.506207783933476 5.6522704838765865
-0.5446640115766823 7.277291208910155 5.669768471205717
-3.65252630829107 18.079151971227425 3.799544958711147
-2.1629180000250097 12.38942457507908 5.083613167392107
-1.9411916459946097 10.270063461829364 -4.789342924685744
-3.6756082860641905 17.983918796802328 -3.1747273675050067
8.012671963111458 19.42047793854313 3.8366757269433753
-0.7633902327921547 10.544947426897362 -5.308305688997393
-4.3269511997820445 19.140967881374632 -2.1232099921402643
-0.7698308661558464 10.876156545903793 -5.369909318465716
1.0933658229755574 17.215753041867874 9.461257459889286
-2.9543908926421407 19.430767244086134 4.561319884529839
2.370104988518606 11.332460628347544 5.1116619192095465
-3.7640097353305277 8.436989519622616 -3.0944039571601474
-4.284396326777502 9.020107805153186 -2.197268963787093
-0.03927303791826375 8.055842209329278 5.686550173652298
2.8587394313807746 14.836272564410645 9.010281886697989
5.836561397845211 14.674120448384866 -4.0055452884218035
7.58618497444788 11.407036198545724 4.9277434275179415
-4.113373906151253 11.886952532412199 3.088938728173197
-2.899210655763734 14.53847498373627 -4.074785205256646
-2.743587761808029 13.505535726731516 4.7317993724190455
1.983473962438361 16.125251925228365 5.308361996112773
-4.843252123343271 14.23743042800077 -0.46675356957770564
-4.925441502498355 10.193405153747904 0.3895656851934337
-3.813943139136688 10.94418742654273 3.5317028559644585
1.1188022078947721 11.992923138422821 9.381817963683428
8.302431527030885 9.594873783801688 0.1900474038293538
0.16810959533754444 14.93222995511832 -5.613179067111783
0.15529817589439432 7.218364459012378 5.671458134632275
1.4487533319142791 11.67417378282095 -5.695409188003996
-4.476760537412611 10.07603159192282 -1.7967588590032904
8.3126374889435 17.63206092158738 2.5996820905136246
-4.63239623913498 14.429794207491797 2.064865208114094
8.277412693534602 17.810346836882186 2.642507556605869
-4.846899356819312 14.151616318956624 0.0941220948516932
-4.060675183678907 18.17379089947877 3.1473851686491034
-3.834101100772674 10.276821385195142 -2.987455789960511
-4.599960734944432 14.176621422346479 2.102248951955723
2.311688682113558 11.73459713849096 9.171885549216391
8.17903422810905 13.537267524374005 3.403595095163139
-3.716467685196787 9.052751913664741 -3.1799038843192857
7.945583791529076 8.288289092530368 4.002662702233616
8.189686015006151 8.267052107243252 3.1008846068832483
-3.937078518196585 11.924666900672552 -2.7408912133127457
-4.2706481036982105 15.23835735730987 -2.1883109722219523
-0.6290059242309263 16.41344202641831 -5.367230721960107
8.340379772478192 19.04839191152115 2.0152245425327964
1.0927458906151868 16.84350552835405 9.401681424376259
-3.4602895034321817 17.858673967425876 4.032093557709747
1.7064889127591965 14.292138609736305 5.452409021712105
-2.3892606919661006 7.616755850002615 4.928361199079608
-3.4675709543917357 17.265195117788203 4.021633977889571
1.9247451729934228 13.861303549023882 -5.64021943785011
0.4199507454498117 16.180260963582963 -5.621062342972859
6.838410444714954 17.345760391204937 -2.9622759339318687
4.609897967156874 14.164165023095215 -4.863272096866202
7.660818662316418 18.351131268868052 -1.6577334663117727
-4.210586133907476 13.996821050102103 -2.3834961373086054
-4.401442238624175 7.422059603232631 2.67692157853849
-4.373757428508764 17.99692774138811 2.7722070136055432
0.0236050780574808 16.83657316624954 -5.55325513197784
-2.1700822749323594 11.170498273558884 5.028325126449234
-4.815280390544883 16.639938687906994 1.0327535649894322
4.20683007346648 10.944424313926959 8.449635520654509
7.900589171825388 13.631469762965937 4.068541125245757
7.99005702622061 17.363438241202797 3.879128370289462
1.081584622495495 17.04552372956765 9.382352218098863
6.871372327208007 9.58858012652589 -2.9245279467519687
8.325460769365465 17.248919324802653 1.3541182204168374
7.606586461473887 12.547686411131075 4.917022917144555
0.6252808918303319 18.890680632150534 5.70927885170338
2.6469743328571225 9.875201875338131 4.984272976631067
-2.5704482703752554 12.434404668206664 -4.346529084689337
6.890226851890045 11.315669336517693 5.998320873707085
-1.3742093349934157 11.625333316469572 5.432760320938502
7.515273051356422 8.881886618660538 -1.9672200584647115
3.5330126513514175 12.102588695451484 -5.3557161737604115
3.0867352679767226 7.892111832719477 -5.456102115986697
-4.726349764149252 18.11983903217753 -0.8081832625806076
-4.375873775904779 7.50441980054622 2.6366358220895583
-0.4919970739583239 10.70035843981731 -5.429011458184261
2.3942532651023383 18.6767942418445 -5.603544143447973
5.986067625320693 18.945934573688984 -3.9159155485770043
5.33746365862649 7.706807019872032 7.65355955687907
8.08516897314136 13.921057557787819 -0.3575838107771885
4.73103099832676 10.125963821425028 -4.7616058256842635
8.246873701227207 16.203263604900563 0.051440137428651056
0.48783346346787315 8.567584368879325 5.751583162387059
4.91677205759565 14.769476618319693 -4.724115080757107
2.5268467644920616 10.125676173973874 9.113000348895632
4.850368408455626 16.06771814681509 -4.708955884769228
-4.596617350129924 17.75640384039246 2.0398369208530394
6.221187935632226 8.390894606384904 6.820177231963671
-1.220552144200509 10.344276190645534 5.4742656309815425
-0.6794712595465189 11.088706548388387 -5.3548297838385785
2.3353177074481613 7.921606481793765 5.150971574355733
-1.6437531994458325 12.949801185740746 5.339530418540018
-4.256337162203311 11.6046894759407 2.88784517290658
7.670107263694456 10.902592283124967 -1.5721418699507224
2.9315728946169566 14.43704760596295 4.8453490967447586
-4.879906086257506 7.742710101089196 -0.18366794510378703
2.2885899521067445 19.589808455511438 9.196775830215199
-2.264791240533536 17.099843093047504 5.078519125919752
3.565569245828695 13.149967978890796 4.1783661306476
7.006633924602811 17.831792943245837 -2.7268940271208937
-2.126743003334923 19.62600282448777 -4.694773465483898
1.8972307472789565 11.678001028862244 9.262511866477197
-4.743962842471349 11.803529705359145 1.5420750891007957
2.049247949842232 19.076622993769078 5.315809193977494
0.6356198070268513 14.026855903582971 -5.62864095452807
2.732725286031802 8.616877080493415 4.923538912982049
-4.322611334511267 9.232800296045822 2.738543766554743
-0.16176877242323284 12.904720567395145 -5.503154619873438
-4.385963004833292 13.556394273287511 2.597489418773389
5.010286315193397 16.897009511954007 -4.633346019649
3.8267798668302735 16.44102675347457 8.613726306610687
8.349644654803328 8.912467402383742 0.8765469894885767
5.252242876217764 8.520244627055762 7.8100937292037
1.858675898823222 12.60704710991764 9.273055845519387
5.285867875432038 9.206721722797967 7.696452378433344
7.718159581011006 19.254247112230807 4.662503958879196
-0.4360489333852948 7.844378724817819 5.704295206680031
-0.4964972811786499 13.500504180342933 5.676785372373302
2.9433260992360246 10.066109948090379 4.798850153211609
-0.248001594300578 9.778423975151673 5.659539177872501
-4.638252855921321 19.56430971668837 -1.3787639098067475
-1.0148677583503058 8.301818156413999 5.539148650662284
-3.546507783303026 16.171503839755726 -3.3758643330923164
3.979264256666207 10.656705978952765 3.689282755737109
1.6797759124240734 15.58593214139966 5.472138998803775
8.003630529783097 18.31823646041231 -0.7915388332611055
3.5095447044818036 18.622362803980494 4.373239101765592
-2.6263676583033693 12.308233473220707 4.77021730711985
-2.37291187288501 13.499788945193757 4.90551647011634
2.0377753193819883 15.141724960235349 5.315068221093079
7.487960239898236 18.49514360964983 5.170039158263752
1.7136625628068352 11.158183501297907 -5.706163943771855
3.3671872031336356 17.155367146528413 4.476610927858257
3.0545722178718355 14.448602012876538 4.743233245894244
-4.577930585944307 17.392238477605915 2.26292676768445
5.367016476572493 8.384818546463501 7.578988014687381
-3.4819088033849948 18.17247292924645 3.9856095842695822
3.4287745613305862 7.283194996011561 -5.373441980725831
-3.9902635766895713 7.392332619866753 -2.7447092878531265
2.6658186770292422 18.185863654460285 9.099378946350807
5.261321110545547 12.733267479770024 -4.571412185126482
-0.005330648483617306 11.79515579037832 5.656728198438313
1.4903115847868325 9.874463673560712 9.30577893997301
-0.08278858156290614 18.898771658921426 5.601921215198127
2.4319076361130723 16.42873383014644 9.142741370298978
8.181138336892326 10.116820466261933 2.914133141182017
-2.9525873759829526 7.102689321658614 -4.009010111341331
7.567755694799336 11.465475835541596 -1.800371559480384
7.379006369287907 15.274029971296255 -2.175234602054611
3.649008364709811 17.099599708947046 4.093373368165713
2.2513783592777576 17.046386938891626 5.157082129150912
-4.1470312670313305 18.438521583277215 -2.4967612190319777
-4.2039943803856765 7.4625215936823714 -2.374440956984725
7.648561191995276 16.67154173559423 4.722222605754574
-0.9587947222993396 18.439518685136715 -5.273190367598122
6.367152100371982 7.421416505031145 -3.4872163168102173
-4.717899019350104 11.53902858782651 -0.9997301021112888
-3.6552579610407223 13.319410099965793 -3.1775297151190367
-2.8015113908365485 17.67612275289636 4.675309395522917
-3.2703979388223514 19.567167515687245 -3.6713829322729197
-2.343707616570504 17.951369869291202 4.896866911548319
-3.8274310856029983 13.497614229391123 3.5517532957196822
-3.145794946618648 7.720069608090901 -3.8326745807257403
-4.836237612796539 14.504366536645241 1.3778366403332956
2.6405575054334873 10.926447297460705 9.074776181244975
8.259049440555014 8.216233130793523 2.4808666640206782
-1.2563681004179852 8.033074347600495 5.401991912396477
-4.57991977482355 14.363813732251092 -1.5848039133326486
5.591452717153754 15.004794282450757 7.469641168685737
-2.1022193558076685 11.445408889512551 5.0868588866381765
4.839107094480589 17.63720876758504 8.012382987749975
5.539319653724979 19.10885418806638 -4.229267989734643
7.761260927184294 10.34956889963691 -1.5084818138948348
-3.181764823996965 7.139405656445181 -3.7299774394540997
-4.6218637744977595 8.97660119555731 1.9740000093261596
-3.411421017262354 13.337097302172936 -3.5184609031611274
3.004627216651784 14.395092124049665 4.797057538594703
3.9014800694923917 15.721781590887009 -5.134107842503919
-4.6795532765778045 11.94316674635769 -1.1890824327589122
2.291777655838648 13.169084123621921 5.232310635406536
8.12209415035113 14.317375041258948 3.4435394017917265
-4.614755259603735 16.68655147232911 -1.512065112078493
0.9992193426816613 11.370219433456896 9.397236842977573
-4.272265076112478 14.17030265804189 -2.287316416170948
-4.206153601101542 15.568771882864038 -2.331331125564499
0.7121275206857085 15.062806987085098 5.67781999191436
3.803315937244121 13.951420919547276 4.003555390645218
-3.2232132478840363 19.262885989519415 4.224136891403182
-3.1632462981010487 17.15305836753184 4.377262707821062
4.327945205941745 9.70031392818489 -5.06581119026427
2.230396442829848 9.392467481896858 5.207875007963507
-4.797957189313545 11.200658959808916 1.4444545672308333
1.6520439191740994 8.446716402390539 -5.632853892231143
8.332159677793886 11.50596017577307 0.7833049668120222
3.7480716168141903 8.200304282114653 3.9157967035809236
-1.5172564027264794 12.79733229147745 -4.985394611766665
1.7225612660896594 15.377021959277064 5.41542363588396
8.3268204753773 18.33320917396023 1.165911082303635
8.29918317325671 13.613856881027509 2.307113222942204
-0.9535017163806767 14.485694990455361 5.566938898736204
-0.6962922827064575 17.995089404631905 5.596021308104227
-4.4794222621616235 9.112722164886414 -1.6980597949246832
2.143667491880416 12.971688434520159 9.222768782383424
0.27717708162472254 10.340757470554276 -5.58692220201382
-1.6122307034017904 14.164047540585686 5.3476991044359945
7.866116587451991 14.299156091044143 -1.03398579986957
-3.07280422542145 17.61442393335979 4.442460442703997
1.6551626441242595 15.646257520573707 -5.66882366001056
-3.241605306472315 11.554682675561203 4.27549166964624
-1.8117057554809133 8.623523596287386 5.232590340805728
3.2225606010916588 7.627595062485385 4.555221203633512
-4.894167420147404 19.124250970949877 0.8094702025128804
-4.169888318983317 15.127539894668452 3.0559471719797697
6.68131137440005 13.535986102413855 -3.159708397804577
-4.879015316377215 15.38796197572433 0.3604826174852169
-2.569292112468821 15.042656160900961 4.831100899393
-4.237395808589794 12.39151604569481 -2.4102221834094824
-4.135868298088383 14.852733940936726 3.174768475005137
5.018239283247295 16.03828683371383 7.833213531186516
1.0238189674212248 14.728302804468731 -5.641471058969385
-2.512556041188902 7.331986798284454 -4.353309849474485
-2.9738663417783116 12.696361916105573 4.5064985834119655
-4.8777680313177925 14.40085055782861 0.8761968785075753
0.15577942287399704 11.380578661188752 -5.546450962896891
-0.3636665317103214 11.89127649095732 5.679844198670826
-4.633464793538778 19.395997966649233 1.9466286834972872
-2.174813314844748 9.28534951735025 -4.665956291260146
2.6882476643895235 13.597738953555353 4.913898593275251
-4.821457763011418 14.46951237518347 0.7081269102371683
2.9565431075069366 19.49976782489759 4.745804466044439
-3.8810613212881 19.273801116537484 -2.854772792281235
0.433024538620415 11.725914420192376 5.726210403958348
8.403991969146706 7.784718337853098 1.386855712140345
2.01067604782523 14.350905599260766 -5.670665597814219
8.128502583467315 10.06568579323407 -0.2807034309504486
-4.68741646883037 15.29589012716334 -1.3540427855457944
-4.666528446552037 9.007650788958648 -1.1467937761720783
0.6732967160766283 18.67738984412864 5.711666890223469
1.2455116411661198 9.87279391340508 5.543278302829838
2.1087409484771458 15.062273097118108 -5.593868200178445
5.936933656535423 11.13943922072782 -3.9412629855409556
0.5950860299180003 12.737392884180242 5.685079398874502
-4.4662271323167815 11.841646996728983 2.4743443331670303
7.724482445087032 15.726478886469565 -1.4735519162662358
-0.36295538618945145 16.129057070694856 -5.452869308778867
2.7891422793723217 10.82653430470012 4.887058898899336
4.2377505958779675 16.401215431473886 8.392491760656007
7.783837066388042 19.499556750943526 4.48602884394378
1.1481828264973828 14.967210294035219 5.573876887164744
6.708881414393028 13.254230605405972 6.249158905095994
-4.601704449299847 15.544879304517952 1.9795114014570734
3.158735156033859 8.790018673328635 4.582138919729965
-3.5556018684451276 14.99499017223817 3.8675780956647685
7.049077395706162 8.374475065013547 5.865344251532084
-4.831088894807648 12.566984023179696 -0.4439178115596496
-4.600571070629216 12.450879687309161 -1.5801824806428106
7.998391124065909 19.017459132980324 3.8031637944346945
1.7071146469685026 18.530394903775207 9.321323082145803
-3.811471818899748 13.814701780164972 3.6261475613500798
-0.8587721049147774 14.820125786676073 5.550319633050691
-4.71723151203442 13.069195207041858 -0.9973530459523277
-2.0652362938372377 7.619530254167849 -4.722393749652092
-2.066193942728745 13.503561176303432 5.183272429234775
-3.4746590437179297 18.177524932085177 -3.448730131065579
7.467644383329128 18.396946779806605 5.216570352445088
-0.5972182313890526 8.601201457552566 -5.419341249938432
-4.461131085601525 10.191330596043574 -1.8476861677917729
3.425204853892067 18.40737805548211 4.405187906281242
6.445780984931883 16.259420320327333 -3.4196590306908465
2.753456631211395 16.63069562372549 -5.53363143172027
-4.311824086051808 17.227602796818974 -2.2247774496730957
3.632033492237598 15.07704622156215 4.109417626337079
-4.9103011430253325 17.274514763041687 0.021002944258051492
5.765368891750565 14.98631644758448 7.386327661380259
4.944922879305351 14.784530222164303 -4.679197477708735
8.029661853074808 12.129981706277036 3.697297383808035
0.9372071391198356 9.585075745458484 -5.741092543947605
-4.8678894046172445 14.604562424134095 0.12898071350147333
8.35112713811612 8.687964931522012 0.3419621249334819
-4.810254790391994 18.834855245127464 -0.34780151553391025
2.489527177235618 17.98208360194373 5.1014961718402025
-4.037605488730354 11.917145040364657 -2.6652301905416085
3.5499187772770684 7.0722523725220405 4.3068581975610325
-3.485341456130727 16.81177763135615 -3.398355976930997
-4.873251969150527 12.175099240410749 -0.014969187376522974
8.318431461281197 12.50300578370365 1.1121372982507793
-0.5094455736341694 10.416540050782082 -5.373107266832257
-1.7870261311479858 10.141769982447062 5.2618440026904665
1.4319742641677111 9.058746037167923 5.5287415193816125
7.532907936997784 11.85047372987912 5.020063083187586
7.53276672966366 18.631053968744585 4.993696827524535
-1.6117098088291328 17.67702384587529 5.315809523154265
6.357787848592 13.513935980864346 6.687058923800983
4.943943153505728 9.016351550731503 -4.683245187413977
4.0502746630283974 8.259323732745843 8.542241083295458
-4.549330241116869 15.561731497188992 2.1101622962043844
8.090619251199827 15.153546085188275 -0.34883364722043897
-3.308594655540851 8.339217008859345 4.25335860897587
8.070292969006255 18.32317862641673 -0.4520309767721491
6.363475557004964 13.163106935968399 -3.528818762970465
3.8599579599820126 12.677025921096654 8.62912862470462
0.6524774426961981 15.430618914753802 5.697613550181442
6.59754041778946 19.40602702491346 -3.2725791804050575
6.180726254699033 11.09473261838529 6.898713892785501
8.085761488026506 17.252463978160833 -0.658769147378397
8.094875823478407 10.19118109487896 -0.43333260674782537
4.624682580459608 8.65832617371703 8.101787498479197
2.5493553013779158 19.387812977654743 5.096824220285482
-3.6750184923212847 17.60239368699938 3.7830765075377775
7.919859896390589 12.77557222867713 4.049557521366358
0.3161121128628257 18.10331817062898 5.703354954687492
6.985093996744052 10.974109566475747 5.9190649237553385
0.09383062412285392 18.02136618477435 5.689824827842022
2.2639671904166567 12.440919572182867 -5.6391375266273265
6.167209781092323 10.555715325362609 6.911030497119079
2.147850519205252 17.86446060852029 -5.627078171862797
0.4989283954517192 11.541181113959738 5.6477930977681545
0.8677224084428818 18.079379799538255 5.649854815353646
-4.539318575350708 7.408899466243751 2.120072083439906
4.728577461101794 17.43912008144749 -4.832887305217332
7.428941104275955 10.471335770640053 5.191271478213587
2.893188803743943 10.760404943915429 4.838873773103642
-4.751322961697099 19.31961400299999 -0.9779719869242003
-4.693288152598139 15.500162146657873 -0.9919344241496608
-3.187268036310827 16.0756679396643 4.342465214971004
7.687499855728001 11.079816729691167 4.552336256144083
4.557028011787576 12.34423361396041 -4.853143678855739
-4.894749736480895 12.704807207891983 0.6694327084696923
-0.5314539610688369 7.9560336595261845 5.672275402376128
8.012976804606241 12.437367904789294 -0.7828496149365352
-2.969955679757902 7.874027106407626 4.477479816762864
5.0846506235180025 18.48104721932472 7.862123806030613
-4.601916901079472 10.941384259017502 1.8645395593938496
7.410512082740025 12.72638606788568 5.206190747803809
2.9569441236615264 10.432470896002767 4.768960853437005
1.9675573881553303 12.655007098414025 9.227542618425645
-4.472530336767199 7.22992399002942 2.4710609670869372
7.6246629515965125 17.728189706701517 4.820734046569608
8.278094900700765 13.71277885252194 2.4343848334844442
0.03315746495557237 19.598001695351414 5.710865234236256
-4.888142703897749 18.34702846517753 1.0474619852196954
7.891446351643873 9.750691349228447 4.215339678370241
2.2637166040377794 9.698725761282113 9.185945217713229
0.6344473397720867 13.876929285867787 5.725194355754441
7.211756859134065 14.978638693488964 -2.386003528847647
8.276096152724326 18.090153911799227 2.7883224840795986
2.925878380583277 9.742397251163109 4.891738438338316
-0.37045157484463953 7.513563144948611 -5.393278888852878
-4.127985180036128 13.524827410222873 -2.5127004426934247
