9.890004118745768 5.224674450233817 -6.718095164768832
11.80172391060896 5.522186934418767 -3.537159659799771
-6.516751502163223 13.775119996871709 5.684739019296182
6.223849570652085 5.990877551676068 2.3032966186362116
6.306940544627115 3.597480603770431 1.8966889161936897
3.9892011319818663 0.587377939366018 6.155220639323663
-6.175542275774509 9.868702985896267 -8.233947688140214
12.025625119026556 10.195810286047136 4.680237613780962
5.258222729343111 20.82776261165393 12.66714851642312
1.6839112620789292 13.482447501459056 -11.099381879501157
7.606047602590895 11.821474141728475 -8.836580582595463
2.23265153072489 1.8102707469364852 13.810994560461726
-6.138904292138185 9.501310963562029 6.219080056280663
-9.213815812716557 1.5495629364118577 -2.9514877322453077
1.2927376296230262 10.19605973940671 -11.086445739465038
-9.469681306349603 0.3513418397934025 -1.1431701754307404
2.333377472409551 3.060221909591 7.121575319772741
3.291134395018106 14.174361685817287 6.692493133594778
9.764536157113572 12.692393758000584 -6.862879818470338
-2.563654237008587 5.211770228374411 -10.493404745598339
11.670482559728404 1.410339691626879 -3.6266132179753465
-9.492351957279569 14.275618464580171 -1.5335858165581229
5.590014461168279 16.139992849361278 4.010445165762836
-3.711139314735458 2.506330410656962 -10.021528675620047
2.0896777277510923 15.552710888620188 7.369911466520036
10.394633698297877 2.30110897087713 8.068894642551564
-6.270468182743007 10.29587537629408 5.831199511823813
-6.616873181828877 0.14481300853784942 5.544480249598609
7.521643749443456 13.1745047102513 -8.93152936311472
6.377368628034063 18.065308399091506 12.045136072159709
6.436969525573857 19.770879767514888 0.24682964679961988
0.8523172750263814 16.4416573534113 7.793809334082892
5.092167066534382 9.163540691756157 4.8844501861777365
-9.36808066340284 16.255004453404947 0.34308728265821564
12.393352857243249 20.72676314087682 -1.0289617603124044
12.548661834806211 7.603671808769427 2.5057005189779735
-6.417321894342491 0.7033143641459889 -8.14587207606284
5.374922305702174 10.677548056956066 4.488622756224798
6.309843522789704 7.399133486261051 1.2107181678456396
7.7283935960720855 3.6825964369966218 -8.81506771288937
5.452119380144132 19.622545777869597 4.251620581733218
-9.052133798934122 2.526818424537582 -3.589864461255543
8.225500194107441 13.777369901111156 -8.377468351936296
5.694712118896407 3.578454797482479 3.7435163347645397
6.346447122296247 16.734060560982144 0.46264676351931433
5.941593048498352 14.654063195195247 -1.1068236872519568
12.46852058126545 13.16363877078473 2.095738119867338
5.77375230584013 5.32964295325343 3.3999340368664095
0.9095596886135648 7.307686745934983 -11.056778905479247
5.691320260402303 3.8446265409431266 3.929319994055249
-5.846274622944246 9.921440779150885 6.2756970806447585
5.816795685810504 19.118199876405352 -1.5677758905690493
-3.412694150415168 11.860750012493167 7.600626093997676
-6.539494399402909 13.235744057214394 5.676167546482039
-8.861642418405946 11.480870426864977 2.4077735861280556
-6.542206754863327 0.9859340614024136 5.824231851864756
10.045016187435177 2.55346845160936 -6.5481315972052405
5.7892568603240955 15.362216033396534 -1.7892788633719334
-6.662960581560832 9.448531179780565 5.706029070902629
3.9370332230356695 14.866610204038222 6.039607393930117
2.309468290136997 18.169567127273005 7.199429047738478
0.5592420678074569 14.679247319705917 -11.007270422535655
-9.42137532971404 17.922194844828358 -1.5712933866301548
6.3375607079872465 10.28374617024642 1.3534803856882662
-8.751232213281487 1.9380532048170696 2.6664791570161066
-0.48489632457560927 8.07322427475957 7.901151457926196
3.9398333455126138 4.031414680261923 -10.620265824950922
5.757847088124713 16.109542005797763 3.6127667135918653
12.544316217078464 14.594488181992007 1.413661114856487
-9.41010699455384 12.134573667913514 -2.320818165642287
-9.473453571692996 16.102328453775936 -0.07264898223211276
4.818510665212281 7.71402866053129 5.220618223624996
6.36848620402961 7.782672928935552 1.1655716495867428
-8.80940234827455 14.722960408929834 2.38374271295302
2.417950193680332 9.51222410456823 13.643684041958668
3.4580442559635967 3.167147961331328 6.592114674893408
11.779585907194608 12.339350499039673 -3.6899007778088935
-0.24792435516757821 7.905486654667768 -10.952622320935772
3.581991543113915 5.1659891533028945 6.309328235825746
1.295663111023662 5.3711311921791545 7.551071464741009
-6.345227445413305 15.567136066722798 5.9856149520298665
-5.815584048583225 6.946569723450554 -8.518170060050481
5.535729944479036 4.769132512824394 -10.028733681805427
12.449537641993633 19.034837849478652 2.9356264032610175
1.5092419741443386 8.67636217575264 -10.896308748666335
5.497848698281207 11.196432783394942 4.221094566366487
8.684322651268097 7.867244669898249 10.246515822307007
10.558446221697785 4.910705614619834 -5.753762579058639
1.8475444005320993 2.11904869160379 7.435262817785782
2.1395213532750876 1.2180515202580138 7.344673320860357
11.644267758020494 18.349855204246946 5.68851722028082
-3.266741234769544 11.31827510569413 -10.199788586031705
3.6863312588185844 20.607704142239758 6.304971722823094
12.436276629984624 3.4514401701956032 -0.6768962718690803
-2.376377875423701 12.441121264987364 7.772464089211069
6.732080077384631 15.816226928554881 -9.492241313587662
6.33208648950751 1.7220670680098968 1.569890511591683
-9.057594528285478 9.455223753449907 1.6203979696590602
11.782923041582015 16.642210865603282 -3.3563085289185137
-4.833546908611521 15.230530018745524 7.004960956223626
6.240336033122846 14.240488244305771 -0.30756129153350703
-1.7755765303835367 16.053998569574787 -10.714025547710893
8.549517954959075 12.240795339286922 -8.116386522456962
3.527683297341775 7.86746598018439 6.515773437889765
-8.03178529354221 9.331094196151287 4.008704909981252
10.557263066884415 5.863628708375679 7.816374641533765
12.097757138833098 7.0832397270216685 4.6205603081053
4.298436248538505 18.449886549807616 -10.523092399234535
-6.647478470242683 11.248566049278528 -7.817702241988704
12.373426818928877 1.5236204623138838 -1.8788737613515933
10.229090880870954 14.098338720707758 8.546844632915102
-4.826787224853607 8.323700852692728 6.90516202297617
-8.392565196768667 7.255335166301971 -5.456837505670703
6.86972069469571 2.2847928073543375 -9.376793863208139
-4.966539043332342 5.492247856548918 6.858468678783683
3.498702635535295 19.27386332119505 6.352893638874554
-6.47962321228455 17.785666720436364 5.747548494841095
-9.404727630922253 13.709110143208886 0.2155146739614388
-0.7745560903324282 18.40657870174181 -10.939599601732368
-9.345939357578779 20.356794381400526 0.3867353247984675
-4.402563578633233 12.342447794493815 -9.57942964444187
-7.243939037937371 20.56808478865658 -7.179872888472904
-6.79966943884573 11.606241983505182 5.478447191112743
6.312870114936744 10.417850695458988 1.525592197193065
0.863489661807489 8.48751400918876 7.618795260309647
5.987167045482418 12.647758218303405 -1.121997340967687
-6.32158756551128 10.11262184535192 -8.325489655809479
-5.159413475849075 5.922639933687547 -9.070484183568242
-9.400618265970706 13.208194009269945 0.04675569413702554
0.8343335255011826 16.899600771679754 7.649492217032261
-1.3516763072888192 1.6513828915603586 -10.828551796260452
6.3451001732062755 8.82462994166059 1.5363764608241328
6.9250662349058265 0.10900210012971129 -9.380421262259947
-7.630162051758757 18.376429199480633 4.496465217237445
3.348906600497987 14.449744293507209 -10.842032860350429
6.249807946437175 15.743850639202886 1.0866335065506798
-3.400232602838302 20.568108234946678 7.56253890087165
3.086893509115824 3.2583248211372604 -10.789807610417686
6.3234204278503485 20.890110212707402 1.755823639694405
-8.072423759014272 1.637290044714071 3.7081925906672737
-4.478071701092477 7.157039530336528 -9.613429458427142
8.413697105338244 20.799820739443565 -8.300468278991866
-4.059912753476459 17.167831799802574 -9.821297262605578
-4.043065688691078 6.094539650895187 7.256400819954545
0.30039641166491604 10.825034206416024 -11.04091893272198
6.153147167056142 9.767991138310538 2.3419695484067904
-9.419656229410736 6.98691063577956 -2.449140149978931
6.3610631802505875 11.126666574230768 0.3210269298556415
-9.256913519404714 4.617521191671088 1.2280902130089677
6.371109172945376 7.109838836216967 1.0026186758740723
-2.8321720537174135 20.39445314956243 -10.293615264417408
-9.135466600813922 9.299714018552846 -3.365698290799008
10.155117831665514 20.2622550699591 -6.262713469293288
-4.5491976398064935 12.02859476310175 7.062162811148691
1.4310454439078515 0.9532114223373992 13.91830844900967
-9.509980147569555 13.828697226543396 -1.4659030027421511
-9.071356149288805 0.25317370834122893 1.8688188610012082
8.229039704324212 15.594723797116693 -8.41216298643612
-7.8168608127200185 8.847893277201585 -6.386723657768385
-2.2111627640754854 11.24245318309953 7.801155117148957
-9.275428833376091 16.587861180756796 0.926535291148142
6.395745776954041 19.021472763394858 1.4066747597337022
-4.4919661690697685 20.703126360417865 7.083046245022159
-8.49671950845275 0.06119523690611857 3.1911384070867874
3.8758887446357946 12.560863701471689 6.126992552076323
-9.330899572767523 6.07183188023188 -2.452668095801673
-8.573896824800922 6.3774258351731286 -4.855255369322715
2.7348074502198565 11.669405897297564 6.896595899367073
-7.608458752375493 19.241506087284574 -6.76923013703616
6.688890937399733 5.144660291661556 -9.442458828781175
-7.529148923703476 2.320654122758481 4.767919486251637
-0.42357096296899066 10.740193911608149 -10.958654200534692
5.401205779732868 19.22119933250954 4.402291974336023
0.15886096761588406 3.806461043127356 14.055978943147199
5.318016334589586 5.398513424682601 4.653712989834101
7.19861898269311 0.673051425204584 11.612689549252698
6.121567052948316 0.29905462968248037 3.0482431492262534
-9.434102694708368 11.405133750840154 0.2333559735733198
12.371489854269448 17.94169182925888 -1.4606360564374716
5.155475100724279 9.355329904606464 -10.227959908139498
4.025616668307411 4.887829608162145 -10.640018266424436
-7.536393879926682 19.717886415820804 4.656848085421623
8.639678102404677 13.023152097452016 -8.009013656086424
9.13950098371343 18.256612065566294 9.851662847276247
-7.523843625727962 2.688981471638689 4.678000250185304
-9.346377864598999 9.272903674271921 -2.536240414997641
-4.398229155177491 18.82902101951326 7.213097881377718
-8.642556520514095 18.411196974112865 2.740268361742517
11.000803437091577 13.170989588596122 7.234846729427836
6.710353440686443 14.07159977493743 -9.571128137325047
-8.88275437390156 17.814701289563928 -4.123366201362466
-5.586738441128597 13.321037625008936 -8.829030633600064
6.019034524124646 13.706614952897887 -1.1796232785254606
3.3726686514153634 9.533262272722364 6.606402156510093
0.22938145958649536 11.200911429547807 -10.96080665787061
12.23207922043372 9.156258269953277 4.3611710038460565
-8.870883052876016 18.347864887703327 -4.238525237705552
-9.006871604632568 13.905543075877903 -3.9298367056440293
-4.894940116490294 5.453616846308041 -9.262014202253354
2.2021623140495152 4.541010666201497 7.250439164109148
-2.5156739736630134 2.170489753467457 7.823160497080473
-7.688246592490381 9.864637828409746 -6.701089012229719
12.000792324369984 7.4045769742335885 -2.759510752794123
6.19662333577134 12.086603371954492 2.07230339960309
0.48408715578767353 1.2490324777586579 7.81401329711231
7.55433133402453 5.213672166927972 -8.775523530511826
-0.5243950963986206 10.750643164819095 7.937332248960352
6.078163856910388 13.168293024652229 -0.5809844651041634
6.35795140397328 7.962776480713191 1.6046866916009608
-9.347271035155439 9.567921559641379 0.4778295840808835
-3.0885867676789456 4.8962744296391545 -10.210440490159206
11.745835464130227 6.270416706560926 5.5922343006808575
10.502048894079861 2.3714173227447652 7.989315614984005
1.864978511860754 16.224722786090894 7.342129865826598
8.49854402302131 16.65107530411888 -8.074387256031123
3.3565015397182383 0.8888148274869202 6.512428302210106
-2.712352320859422 3.395515360945531 7.7174005236766545
2.740805394222026 16.792039640252664 6.8775012855967175
-5.923276567980299 19.037522302577685 6.219285899799821
6.151988458890056 7.763214373885085 2.8777216144844857
1.0356524595813346 14.173382753949658 7.628110870443536
4.693370708123951 18.309670979747445 12.919162613477873
-9.383494503915403 17.349517953288846 -0.293956395021215
8.901211586541713 5.2665695491429405 9.949947163688508
7.950512809168939 12.341445807811008 -8.588776816373276
-8.333139407997427 15.451294941692394 3.4852524302781087
8.687275411155795 18.57450783746302 -8.137401914446208
-3.824561196572699 9.734345150814582 -9.903193259608974
2.1015763670899337 2.9320223163948946 7.402881532117177
-9.43103031439704 2.3394528442366322 -1.94099503872337
4.778123304852252 11.133584637898606 -10.354178660745262
1.977660140751387 1.076056228721477 7.229164838552021
4.239460086847136 0.7257912107519235 5.996322163589204
11.472886152091306 0.5066397954895635 -4.134402150669715
8.22003900919021 1.4787321575223853 10.614198186121861
-3.986090724350222 7.7127042029938 -9.845558633543968
8.990743615039463 16.152445009148646 -7.7354630225378465
-9.412291005626587 17.801560522317555 -2.4864504132100396
8.678188177876237 15.26732988990167 -8.128557203415134
12.445122840110121 18.517737626728053 3.051947721033615
6.520929253651658 12.092660803767894 11.948948268567898
-1.2894474159129587 19.61113900068867 -10.797976181188764
12.53286913778252 19.01363782263689 2.49652860497507
7.69203363713223 9.40367718137351 -8.890788504674294
6.259591592293343 10.045500793116688 -9.766787339859684
12.471946279343811 17.973441610026335 3.087685021646975
8.907342373889252 8.389941098851295 9.97879829967943
10.559374462744215 19.814144116730454 8.015822239219233
-4.669679493328042 6.1522395854502765 7.082434348825463
12.505120154329894 2.3280911197078367 -0.4294363569732708
-9.029810965064874 5.298553225935927 -3.5066933627826016
-8.985513342025856 11.29517798945679 -3.8202962645615504
12.47291900332527 20.65913626948634 -0.92788139926926
11.789459751732066 11.51578183645073 5.291006833114729
2.872088393206928 12.366138714038186 -10.968601354952053
-6.929796294633991 17.584531326644672 -7.56264589620249
-2.4457712491311923 5.123419459602573 -10.4682752971299
-3.0760050656920725 1.5326529300555256 7.692997854634682
3.8569879473524993 20.032292757933064 6.1494299073385426
-9.477202588723658 2.2912787524168015 -0.8361517940277577
11.471313026739598 16.90861359003948 6.162789590542139
-8.185628361403946 13.645299367020105 -5.81620536505436
-0.3366836375538297 18.10070213175708 -10.972830807409494
-7.616658999208449 13.247097423703757 4.600401854377408
3.610594113163692 6.203129951914115 13.458754875970655
7.7353365353025 19.531210065014896 -8.873554199751686
-1.538648715746898 14.559984444583757 7.861762226698292
-1.3795658946239475 18.35946992447947 -10.656109934268638
-8.9848207611249 17.194081414565353 -3.7999880484092854
11.5797777645221 2.799041960778598 6.031186382061927
3.7559169230026317 14.676545805355218 6.148799997355997
6.35837095417928 15.824232504439177 1.5299196192562616
-3.9786883335831313 16.68847280440449 7.231929008317249
12.563144512087014 19.775456560019506 2.4314355433654242
4.0483272281151095 1.320285829731558 6.072695319828678
-3.848480379279779 10.631747302739287 -9.791863862363929
-4.204537222014792 10.442240724727462 -9.687652527364586
-5.5066123763724315 14.708168537766982 6.540285255091999
7.8549399645796925 19.073129537504016 -8.666748656914889
2.5399163994556213 6.197442267112398 7.057226550238864
-4.918870749388349 7.020237692678923 6.904705831923889
-3.3147036779899506 17.158512795675872 7.594177444222271
-0.4369456833416314 7.580299946665267 -10.951543972868688
-8.851742955148236 9.33945081999143 -4.414360436929171
2.1798803266050943 15.763678287184252 13.73846072827625
-6.225839026695182 9.45670914320199 -8.250348017555215
-3.7830945429142644 3.4175925320706693 7.392582444121663
5.961882977515354 20.820967618970634 -1.1707938675649918
3.1794036905788405 7.173452200281795 -10.815364618581881
10.25112184092906 6.278551046386027 8.387845656584298
1.1070218215936187 4.754850465861705 7.719474466165764
9.67982124046515 9.078403365757499 -6.998203845893283
3.131755483900637 14.656931521376567 6.748917645675149
5.350115115087924 12.684303729389791 12.509988587481947
3.6714680911267106 3.7463149088620202 -10.656036742464883
-3.983305413321709 5.564827217664534 -9.891403369851316
8.231611481491198 12.611465184602896 10.808845598746602
4.126337834428854 17.948664392621787 5.907033278439563
8.809484868799666 8.70795635800343 10.081519519300176
1.2010507920586944 4.497504057063036 -10.978354066845185
9.96901861081015 6.793035094548656 -6.632898695537824
-7.931473380776031 14.531835521618184 -6.308282993602531
12.527370899453254 14.68102520738916 0.14034481043842983
3.3541791650729507 4.688196436365222 -10.831883337631998
6.07899602895646 8.259033902976967 -1.1988560557651438
-5.127705365083712 14.774567901694576 -9.170057396433776
3.573732539532881 15.168068143428906 6.342544088970749
9.526939389836247 2.683922021408595 9.331830427302496
6.29926657132527 12.883295035201414 1.9082257334257164
3.2533217360848705 18.636795020767483 6.616051122766158
-7.856883494931171 6.432850066320505 4.229460909786547
-8.582108182810098 15.655964384357523 -5.094857687787089
-7.753550957953153 20.511672148092085 -6.472338548348607
10.219560105571755 19.108800247349052 8.380454235435598
-1.0664060706474827 18.297124293902023 7.913070438548921
-7.946392708226042 -0.08729436999663934 4.2337047059761215
12.623746518020939 12.225652455811602 2.2267619592693557
-7.635226272137633 5.588426896377316 -6.730010437731197
-1.3315621052448405 17.081750372561118 -10.802516195682314
3.635394092404683 10.944692343415145 6.31042154060443
-9.150981799958672 18.77883382434087 1.125050547358664
-4.517175633384728 10.9347930864981 -9.578849139374695
-9.008542576447871 17.129137990579736 1.9396694551049707
-3.9252933429445855 11.919991598538386 -9.852036808372594
4.956642523248348 10.119776107888496 5.0257924387443165
-6.769863603693266 12.435190482951697 5.545092777372447
4.037903436201515 18.514880980892432 6.036876160151946
1.9858387202947405 14.876194087531807 13.816236662917394
-5.189358895627466 17.218528665013302 -9.031594583823589
-3.346847380800367 2.2008715302712747 7.463587427935348
-4.172060083582558 11.414686846192506 7.204950581013616
-8.086859843465671 17.98953593725324 3.887969003235449
8.313858551878562 3.003584592366104 10.745853467424096
3.5681821662476265 14.951772097782493 6.326203736309386
-4.799756834293322 12.373397323494183 -9.307840090007218
-0.14139198086070684 12.771175719347546 -10.945582704929521
6.317914669292432 7.754879767224511 1.1878387263155783
-9.532082147176487 19.264806239680574 -0.5558918518637295
11.038926054978159 15.022317895656904 -5.094851041828226
-5.533571032854082 4.641556902589127 -8.855969288065683
-9.077463091182887 1.7920936155435903 1.5669880179948483
8.625980427522649 9.120423067748645 10.214368177096814
-5.391146678814973 18.11640285360578 6.587940607855569
12.333625418121914 3.964029046595019 3.4716448078652524
-9.349994797316231 12.275090789502448 -1.713035390573253
0.9552429201945334 19.740542519362087 7.593067868786389
4.593323757214631 10.69668229182589 12.985118476509125
7.437613475792016 20.431707616538308 11.284778342159493
4.529249649984904 7.654562611000608 5.489402662979798
6.183553712882222 6.117748933414455 2.096452568381695
-6.796512525352875 17.665117271346045 -7.607706449341721
12.478127296748976 18.24962600036144 1.1392499980106188
-0.2309994312395674 4.299010597391766 7.8668425216595255
-7.0286000945525915 15.128154338458012 -7.406341375666031
6.216425188510451 12.446705546645829 -0.18478507274754036
6.322881623700036 18.745357329875116 1.716164796700158
9.269341816314661 3.165336049007599 -7.496029737784938
5.9944880445033455 16.0250578049791 -0.9563623329514542
4.257610647188325 14.526536047406331 5.799699492752556
2.4175480323925607 16.708198274245724 -10.898466056172923
3.167281844123799 6.057730756391778 6.7405025337126805
-0.19464730640243397 6.360594097782331 7.857437256045684
-2.1906366242438593 17.58489373661969 7.8065389744495075
11.89636389907162 11.268234183341685 -3.0037797946017375
-1.8866767098916968 5.995793800775461 7.929248357787709
-2.7575375191220406 17.530945350084938 -10.349031594381957
5.851257947433834 14.838036615922297 -1.3689916453949318
12.465628743000396 18.493620096616347 2.854039113116782
-2.1297552701024456 2.7307519699004654 -10.587576423911386
6.314219788802833 1.1781950571797315 2.54589042443157
7.963847737418217 18.46150761232379 -8.659127855707677
-5.257993353306648 5.062206357340728 6.759102637435481
-9.213503828195137 18.5773268000483 1.360596880839724
11.382357622711059 7.891438320115248 6.388760939165062
5.760051153009407 17.780928277468266 -1.6114530375792055
4.510951178761847 11.304483178960766 13.052199304762267
5.916625817650106 20.310827225131415 3.377485015417507
11.935701492210958 2.403379052002482 -3.083154420159578
-8.28510784262367 7.620865528857102 3.5822887947932465
-1.4199254343095404 5.180514007573309 -10.604987080679043
6.4366086954580055 9.464336323476104 0.4189107323651038
6.345059472302513 2.553796847289358 -0.05809906164299966
-9.4554115395527 10.70771927746155 -1.817545530639235
7.432278593730817 18.228232751510983 -8.956142944168167
-8.573955173044489 7.387102151976699 3.06248087679862
12.207637865717292 3.362559445534536 4.326780781084735
-0.6439875042451008 6.41790995209593 -10.955427275696985
5.135917460577921 15.736496110265051 4.9671867895335975
5.387046545132016 1.9605995802246903 4.2283304301115345
-3.105562323080909 15.444952990594645 7.656533074664061
8.878377844148238 12.920367561626133 -7.74503369332046
7.449496364492334 15.541986116007392 11.263160164319377
12.35660316177026 0.19958968650793818 3.3989508345182013
4.456483198769973 15.138937050817024 5.6267477515476845
-5.840384164385674 6.728405472678017 6.405115888799457
-5.175917557688762 13.294009213467216 -9.056725690363496
-8.95575742500439 1.1492933862495966 -4.211364042851113
-4.298585835308933 11.70087459926596 7.24673496401699
4.779609757814196 6.651051045446981 -10.464305096598643
12.26808357470109 8.530590598815518 3.9061049741553626
12.351585923153312 11.890778354420723 3.5510216185406502
4.432879851458269 1.4574957605052867 -10.5373493237678
-9.228143050147597 7.616311402238192 1.1782113735418314
3.4221281788294586 11.002490355025943 -10.80797264044064
-4.572801801286022 1.8338107399458974 6.987883981765082
11.489260565520508 9.82057757882262 -3.9921100835866543
10.978920316644702 16.17965026409026 -5.088070750164736
6.126576137221844 9.371959387852865 -0.7303974638624882
1.0558068812134402 8.262938496586482 7.648316006816695
-0.8215373891028643 5.64786670752491 7.879772564891544
-2.3220029904319768 1.0710638142816917 7.836514978373303
-8.138981674396803 15.964385441493079 -5.899314755829753
-0.621002294588522 3.323528414186867 -10.968248528401036
6.164317766408321 1.3543533862940977 2.139814942522623
-6.093926490809464 15.868909031831864 6.078463297589833
-7.961726356190486 12.359596547054316 3.9522367317610927
-1.1674168653639054 11.749778039164639 7.901166187850375
-3.887266996186859 4.259479669392477 7.417712434612461
6.33704298904961 12.558342541510974 0.8404117039488457
-8.800573579182515 15.30836981395088 -4.500562901902656
-6.430889101680092 12.382612895389244 -8.166486413078916
5.867458034337999 18.089416199314023 -1.1330408872282007
5.539771810126084 20.924114652756135 3.8852102236086568
3.200610882234104 18.169715256685116 6.723454587370443
12.509548769678496 3.7507472528643984 -0.2965343759543368
6.1705175972248885 14.619219602737473 -0.7096189944297693
-8.868070115631758 6.295066549143617 -4.6392150904837
-8.017510916831888 1.2852899066875796 -6.070798526277638
-0.7215048129101163 2.2165968274940355 8.07753084399282
-1.3056728213704103 15.983313721782032 7.9293052466981875
5.149428996278094 16.01742124091016 12.751764681160882
-8.76278178684444 6.4130003067654835 -4.753022305648677
-1.4938072660444246 15.435682043209258 -10.686227096012257
-9.298756340833618 17.04395160136479 0.839670940793088
-1.8727040518362021 4.965371203656552 -10.61404082783102
-5.742733252202117 1.294542744661185 -8.744781105536676
6.050186899644285 13.002935235158914 -1.2539839882880208
-0.1161251898798574 19.896775894369014 7.85444330521364
-8.514470316661752 7.358421382023381 3.3344027262584945
-2.2915185182745113 5.774596978824707 7.8233470341920315
5.696235023222826 14.657722014878535 3.8086811082610463
12.592484915487196 3.915204356320466 1.652358129435592
-0.7145898668921908 15.32110746891529 7.80001963781922
5.796825001095956 15.756663926451719 3.6451414100745922
-5.6266665402468306 9.604447749551957 6.430526104597458
1.6431671278694278 15.842837055224287 -11.048779011817956
6.3049452628044405 13.840296080433086 0.8513221336608809
2.8199290740598935 6.171344608292464 -10.895999861646953
8.502912521590416 9.288259566119402 -8.265981161369009
-4.652436331789038 17.499243517987765 -9.419677835544709
11.854793074493847 18.876853417806146 5.402918024469524
6.307252479933996 6.705662140511548 0.20441532119764652
3.8851363979030324 3.741836161210676 -10.617517789028337
9.41995545025926 9.68839766505817 9.508908387788404
6.048703516667575 14.272710250364597 -1.0004283612764346
5.272834747960642 8.720696955386861 4.580247519021874
-8.949319348368677 1.2149906887316295 -4.217691448298869
-0.8340534661864416 17.937474134503532 8.017912215701784
2.4997584537772664 18.729184712883683 -11.00063217840238
6.156914159223441 10.0122646439164 -0.351154254041749
5.151764946663151 16.28860193783621 -10.169743538283395
3.7478421091781438 8.39753780558989 13.337738553385796
8.277153993127072 5.5858624865833155 10.678093397708428
10.580372443533577 5.790650444375721 7.853907938287286
6.022088585380526 0.8203083757379318 -1.1877971274041441
-8.992287768793709 14.332505873915348 -3.803330848346849
11.720711083599666 14.555537063950759 5.801694844597682
-9.24175643282315 18.269732257767906 -2.8417621252013787
10.677796147485076 16.42335827378038 -5.614952541799363
6.373074010010078 3.6525508647451 1.3374595196126378
12.392038175499971 5.119516779818895 3.592579793623733
6.268692637466109 19.777537533896425 1.1509909134465917
-6.37987100630302 5.5575251929721805 5.808875112947126
-8.630864094985325 3.6031856510009614 -4.9069231446383315
3.6906799630637104 3.1522705324290134 13.33096620395957
3.827679678191939 16.269570893020653 6.196775677124229
-4.352784992531625 15.68917212643793 7.198257463552017
3.0455015753092924 18.161212984691865 6.808746191751782
-9.468850336942229 12.831195788472687 -1.1662696375460222
-1.134994400729451 19.74925863183922 7.891643502517813
8.463580254390024 12.734884810266779 10.452136747165195
11.067917189028476 2.1514411465233843 -4.798039671102101
12.433479171754037 20.79663703020518 3.2667432100196985
-7.72451209977437 18.98684851528005 -6.616261122896895
6.179267431985622 15.362164228194574 2.943942061962783
12.231438215356054 20.21501037980855 4.079384294365939
-3.215038519715589 3.500436510385708 7.5523214334629065
-5.16665123810969 18.543499115025213 6.759711184634572
3.7034639580947526 2.507633017104192 6.319755900494942
1.1550544223039745 14.580692288856007 7.63491085869867
6.078068596721973 14.558335368521096 12.097876662358292
6.213786831574486 12.176053864223963 2.5346280633626757
8.076756615289666 1.7332102167532928 -8.465462620780402
4.71784392185546 5.612393661076374 5.469253757998301
6.141455318767498 10.473991403904355 -0.8313041506458941
-8.516981341988053 12.176760076596622 3.1223091094730067
8.799416709690709 13.307553766885915 -7.904373080701597
6.334504425233958 8.072219942484425 -9.653326699267613
-1.3973703686979357 10.898365524850293 7.9360177811279495
-9.099346592290452 8.239570214705514 1.778791318732007
12.197525501168688 5.247158055844967 -2.2594917056013033
12.613632542101877 11.927175661195886 0.6525459483698879
1.0077046824186149 19.435394837551854 7.683220200626909
7.255804364117717 8.823482860782866 -9.205446231161421
3.8639635940430193 12.3762072557631 6.110365214911859
-9.063540301531745 12.472310488463933 1.6459071493928363
6.4158945868782125 0.3419290295079489 1.5365559786279193
12.573914724059017 16.79381447415426 1.5759501956021804
-9.389838026355273 0.9945764359260948 -0.30217627552438636
-9.312779691003756 1.4525665625577922 -2.497962115493589
3.0840891504448957 9.638923114071243 6.64066289972426
-9.462333939245626 16.103782171188307 -1.132900899806063
3.677554486222763 14.947047830383767 6.301654374384729
-1.1854926324814694 19.94808283385111 7.914913831464405
3.328655109521148 1.0763143251305247 6.624832452008776
-9.431330863742604 16.995571365434426 -1.9740681690223674
11.059231303962868 0.8437615294501585 -5.035782107464326
6.981759111940146 17.257138805381512 11.656330871283915
-9.361213452625305 10.90583731596049 0.2567619000095234
-6.4918214458314205 13.587802113763411 -7.874979077286584
2.86740644049643 11.0824852899793 6.892423641628192
6.068815460005844 16.210810677589446 -1.0730111051808868
6.749097676477847 2.2856209749190897 -9.463064401875554
6.93928452039877 16.052138300361815 -9.343619912200847
6.296402197012012 14.409235895236034 0.752648411486609
-5.969819941211326 16.553977450769796 6.19307529992488
-6.610009189045686 17.27504714348838 -8.051413293772262
10.922889414570294 9.62022814674126 -5.29123022458703
-4.438918581570477 8.717947884923014 -9.5368709770648
-4.845397786999433 8.79932864070715 -9.283782461753782
3.6509332799301895 12.776210470466118 -10.694549244194022
1.6694425205712404 6.206166995361204 13.91274329969896
-8.395229238162514 18.78054871484294 -5.490084050999989
12.293488665238778 14.725950488437402 3.7668064498941405
-6.191452863227351 8.958929002914036 6.007632688839725
-1.2844736825811216 9.72991148368536 -10.750097965589363
8.691410004136902 10.36879711239892 10.222227378203963
-0.29640880058513136 1.0393855445190696 -10.984584630652652
2.1149827375077024 5.921059359854311 7.284244820918301
-4.485999272706501 1.8707252017260587 -9.480884460838931
-1.3753177845209459 8.912418191243662 7.885756992065924
0.8138033605082808 17.24561764376797 7.816519191794979
-5.332897097466683 20.01788557711794 -8.992334674265845
6.275732048787737 11.269399965128098 -0.41084225056450197
-9.28194174468685 7.6742929745264785 1.1106739065278406
6.734538156863675 16.740101033996822 11.794099527336714
-3.858024166642093 20.062912556373323 7.448608858540292
6.38107306919208 10.314238636112638 1.3856298879977778
-8.76980250335735 4.415254963759478 2.645762315684517
12.542793912770197 12.138111443947821 0.8814580287328222
12.568957913716439 2.9398345827257955 1.1702672001459087
12.55065271962945 16.6512288148787 -0.5880997453712186
4.235921672442154 16.457201277087268 5.864048091062721
-0.011019799236997124 13.944925416107449 14.125521991601774
-9.189002485438458 8.128222144138462 0.9267097575510082
11.13255143733978 1.83451808601571 -4.836381422395774
-0.460025669725311 20.181586579905158 -11.00741571927308
-9.197679032399435 18.322137371975547 1.0549982356712018
6.458340058732841 6.138080984957123 1.670213526381401
11.79669943101233 6.342524138381837 5.455350995245775
6.414003965086367 13.237470105244189 0.8797408130124705
-2.7436475849714315 18.15816995857797 -10.375750778281699
7.5044919920724045 14.781308419247818 -8.931412807430464
-8.32767595548754 5.741716797632691 -5.666697908891386
-3.697277627229946 10.499302897942894 -10.014423152246417
1.7771236687459702 12.692869387365464 7.330368452612639
-7.02897045874288 8.116838773641671 -7.488116440113302
-4.710327295416882 15.70155423460032 7.043736934592934
-0.2545676305873932 2.8061893673728946 -10.93989765530579
12.513339716444737 20.8348846716967 2.2495934589843527
6.339632450960963 1.8740924691377359 1.473486029043814
10.523254931237767 16.5882123439476 8.123464663473888
-3.7554399569836012 4.922673303618148 7.455354475932629
6.85128882550881 7.991871724364631 11.632058695354244
-4.727241031321904 3.1144417103843227 -9.459171411630864
11.18978585580201 7.896636647820176 -4.852875864592975
-9.4093973180407 0.4152010441845797 -1.3026025845112772
-9.249006675793767 16.458716624131668 -2.846180542114314
0.34769633475844597 7.15151121989065 7.859105967424815
-3.8114135008682624 13.739723931261503 7.388345999595603
6.062936052364372 20.50880655190919 2.973427252737046
3.7682794960832964 8.428942231191344 6.205554971974282
6.300489865085806 2.497295185338309 0.8345368074143817
12.01800975618552 4.528882874324351 5.017490675106136
6.378430894207885 16.327066434789657 1.0068404010329692
3.9358695239302914 16.66341557208919 -10.635620904135118
9.22955304138503 16.24933845386907 9.689121413331264
4.9149256253037725 14.178348716227239 5.025110382646661
5.075779526167995 1.1345860041194764 12.779729357670865
1.68660194590929 8.675871269463372 -11.02328163533191
1.5612918479115256 1.0432413507143843 7.453314512370801
-8.857637883678317 4.150967969800283 2.37264994487486
-6.084602383668809 0.2354496581812283 -8.350676156934066
-3.102287730188212 17.025534123353097 7.595109562594651
11.956425665633551 7.021168468575012 4.979389051220456
6.1414542167467925 5.502095111946929 -9.818988887864439
5.642944988161229 0.449992389625734 12.471529834956991
-1.3305021718456531 0.6357813912416054 7.934192362004404
7.435612595173428 1.776641489074857 11.34032607300214
-8.99342371284357 9.95784406900806 1.857370807157854
-2.4942215520474753 1.608300545857074 -10.485998432480084
7.1433974964477684 12.088576449623561 -9.249191594103014
12.060102623460114 14.43279238727346 -2.7573093972554052
-4.713144445140204 14.233480456573828 7.028818376737443
-7.94256703685625 0.5654877785507921 4.228812543085043
12.323972002134305 19.512291479681 -1.9072449053247535
5.274752186500934 0.8132613553705607 -10.18396379959209
7.229010637579968 3.883642043445854 11.52462173901987
2.7847745725859294 12.564069805449435 13.754650193846178
6.40140125740702 16.05015745947415 0.6941708565536532
5.701937621250303 4.901394048173047 3.7028377021384005
5.189955113214213 16.889946953359843 -10.20423654733859
8.04817579001739 20.045111146506333 -8.461627873081149
-5.8872913518122045 10.39717186483967 -8.576253797340236
11.868702792037562 11.702740129196874 5.258154665521941
4.9152086172388945 8.112573018001697 5.1251669811352905
-0.4674814346274306 5.902207072163962 7.834466207355405
-9.33251425598593 4.097117974536948 0.3851811592847703
1.398998884200894 11.639131570521878 7.497865748153877
-8.918219599252087 16.814401437101424 -4.015653727110102
1.7016108937356513 18.38062627986999 -10.923051630245066
5.960094262862572 0.823972148418997 3.2289011475210017
-9.157112344606938 9.26809227141768 1.2536595251479565
0.9312862609943477 10.550147306619277 13.96466825930463
0.5858192754174469 20.494129217809952 7.750082661650387
12.35936516149521 17.81430227139967 -1.8644384353428403
-9.572530410540914 17.81781828628994 -0.290541041014989
11.336508346765916 13.14722458099763 6.706786211827757
-5.207125339348962 8.776283656228818 6.741189266927773
8.365496614562353 19.12199430971453 10.513581488425116
-5.12252748532171 18.681549470570864 6.735584549136633
5.152399150259177 0.47245331915451366 4.783206033876847
-1.348622500729327 14.909125002822288 7.731114497735353
8.337037335605507 0.6386761566599788 -8.238112412847496
6.35002310312513 19.6667487367664 1.172002977549173
-7.079289678047193 18.21004828291011 5.378597106313863
12.05712174741852 12.131011917267669 4.764328490522251
-9.340955453634178 17.3044710177139 -3.027338001403563
4.103130493733261 14.753916319648873 -10.569796428791001
2.803254167886228 7.080877627985616 13.62992174676315
10.942992236008902 15.731523893483203 -5.274811159279643
9.474713963437681 3.40267570124574 -7.150335772932588
0.8993591299613306 1.6113243263349646 -11.06764674640331
11.419222058274249 1.5718927156729965 -4.283484219168405
4.319911707369176 20.3068432405429 5.779953337842561
3.051718039226972 15.386428492118872 -10.842507638179672
12.23508327759035 3.5819798600856196 4.050686588858899
0.7896781660714097 7.053203063236102 -11.026982103652267
6.338921210589991 13.123392811107328 0.6410116001603945
7.713465754635993 17.72714005603132 11.165494949177786
10.477358420030237 12.766614975779964 8.150303022982259
6.383096138944743 4.133281441863028 1.5953616327495685
3.753201482023708 19.604286645094984 6.247169462848017
7.350497489598302 13.797389515741763 -9.000686458714275
12.445632037079339 1.1709188274758233 2.9749594105129873
-7.509356875161545 19.731562257655998 -6.7923292972240175
6.313513229561014 2.1804185593863976 2.0086859100948375
-5.890371916486689 12.327685696473552 6.110280066526046
5.82087801946464 4.032108278839364 -1.6417554017433897
9.353499883234395 0.4634096130843924 9.538427355000648
9.484105921406044 3.1042704401379013 -7.231572825742473
-9.524056760301045 13.94119719261475 -0.9820097983737465
-8.201249975552301 13.909911491129359 3.793926432705379
1.1540210226754288 13.792681397926588 7.629177648690464
10.730169571219685 5.3106968820051135 -5.713004353464304
-8.963524043762138 19.20805555794599 -4.053860786872928
5.774206490330881 5.547891807997829 3.673767964681656
5.888751488264946 11.151508072200135 3.5472602758011527
4.610264483857108 11.712637287154296 5.523922983447923
1.6771039352698451 14.036514972181484 7.446361367221834
-4.075070049361762 4.499784133367368 7.337568341982947
2.512628206854903 14.729023410925203 7.164965097259121
1.3881072659703386 18.679315756962414 -11.070473443631933
0.3718414996014378 14.110879792007282 7.9409816709298
7.828686405696146 12.102022839209983 -8.68583893247749
6.977290726766132 19.068832053812944 11.639865692414482
11.727489426923514 12.667437125855391 -3.514882192725276
5.365296727205914 9.466877104118014 4.51296168234338
5.622044412348008 8.394216665906724 4.090093796148985
6.3076805110596075 1.56228052470542 1.4193017772649505
11.622916350367298 19.87642211402723 5.82667361234508
5.46905117952586 2.029451023318073 4.287074947030181
8.970095191009195 14.462730005386083 -7.7536923638771755
4.51773917472549 6.87177752313824 5.615131753754761
6.779635585260477 17.447123825216117 -9.445003504558366
6.169547589771614 6.714240594086289 -9.783636589167246
0.44616095065282235 16.715269060346348 7.878900512793611
6.353232848490451 19.217587500198153 12.053377166228534
6.2822021505241405 5.598897221920756 -0.22569257561126496
-6.5250589372918375 15.89102941621695 -8.011903461214487
8.12235786056064 10.546690117257027 10.70604647338178
-9.419970339994808 8.275281508761708 -1.084402978798802
1.8084857680336464 2.843106436949639 -10.911590030872832
6.3813301819714905 12.313354449038767 0.2689267109424672
11.308071381440083 14.253896454238477 6.403879782607539
4.555749634782512 19.1936264867188 5.3719205782595365
-1.39698947711055 3.6213034181267307 -10.806699153604107
3.2625999971437674 11.166428358072906 6.612274221174906
-7.7028194576229945 20.873509611693102 -6.582787587284955
1.859778822832277 15.121772476429285 7.357856104525263
6.103375218514401 5.372577951407331 -0.9657470004153601
3.709647273279308 7.365877611619307 13.389581051814874
6.2334866212944195 8.877113626550372 -0.14834267562786985
6.234510665827254 13.072814020636224 -9.78194320223992
11.27868757021471 19.367166034100094 6.760525284376764
12.478795984100147 16.849143041448997 3.076493693108986
6.292505770192379 0.4136279719558965 1.0930560101888602
5.493445600165207 7.317485609702106 4.358471297189575
8.143164092827947 4.389223764704066 10.754106696044161
11.416498575249308 0.4488950264271412 6.409713277192163
-6.4485057607245295 15.838466350391306 -8.11122688717055
6.428431026586616 2.3209484077298734 0.3436750756565797
-7.647304368837862 2.731368887596788 -6.785453592567241
4.9097408422796125 5.837850901398486 5.063514973308911
2.3159604689251845 5.317056829380069 7.134939793987878
6.3063211605271725 9.729594827991 0.2814667374847352
6.396205519379198 8.910127688535898 1.4706999644289385
-8.540007349170072 12.302909861114387 3.1499971670598934
-9.42644141024886 13.700079195220477 -0.9736379561251317
-9.524788423218725 4.113146280086123 -1.0880876082546158
0.4243857588177839 10.763669118716653 14.084541758963274
8.862086885564851 8.165862235626406 -7.868426991316636
11.39407561371305 17.89698691384353 -4.4778128476618155
-7.121902840929618 12.735514619565986 -7.310922848549095
-8.50150535181502 10.859302999720596 3.1459168929882573
11.109731638641945 15.395385710060063 7.056527581138179
12.506327151877349 9.156482601037983 -0.6586265774729171
4.726099938378322 7.434620412809937 12.95960343369502
-7.755507444522571 19.70920539190213 -6.394548485442821
-7.805478102931463 3.3105959677824464 -6.349226514193013
12.595004798522043 12.832768164560065 0.13869450391986196
-3.854720468816242 11.639516672336345 7.389748421394658
-7.281983323044879 20.211488126784232 -7.0653374430950775
-2.096375530306407 10.522624827615498 7.846932444171533
1.8709544683142927 11.459078680295345 13.784922225626731
12.14712310603483 14.462670980747676 4.309934367814299
6.098857082911962 14.290312714694087 -0.7949208231437929
11.58370585233171 7.206771206374675 -3.885213887109363
12.048323965154022 4.4772162049685305 -2.581392936739549
8.450511929714455 12.80196881939113 10.51623306855035
5.803981461055983 16.260524565790462 3.6104313301613993
-9.483697131314415 13.031062822921394 0.01565119048480755
12.463553341300681 9.790422964364925 -0.6209067175115559
0.054185585344728934 5.869221691009809 -11.032926027405255
-6.500183367587108 2.2134642664022666 -7.95403236616864
-1.5236587257160252 8.216028591397412 -10.75349058964943
5.408719293110807 14.44360654957939 4.278765049674748
7.168841794965208 11.909418958818799 -9.20082209477853
0.4755412918170938 1.1833662187177625 7.757385726155797
-3.2854459542420438 2.9759825229918917 7.558167240945579
-5.069200117135797 10.706354386812363 -9.05008294157657
-1.0183629172969095 19.956588610564193 -10.902844786283302
6.217036034715769 0.16900282063032743 2.209622843975965
12.455443877463583 8.093403284255965 -0.9143253159709761
-3.57436218918071 2.9826104766515074 7.488482853001379
-3.3986077975040345 19.20989177871784 -10.053272923061126
4.292838330588299 7.865350487400628 13.145355200469682
-8.329677285386976 15.06544320473672 -5.7157987211288255
-1.9386023763098728 11.32036688742291 7.827992107752507
-4.5812976436441115 9.168145760477964 -9.445157190038456
-9.518127226900257 2.2321180783786434 -0.1339655062582786
-8.087228969568072 18.345590534707732 3.872442010144068
6.768886326686691 3.303623437718479 -9.424275888397426
8.767872586575598 15.832426963118852 10.091358455251731
-9.119059244377958 13.238323976505214 1.732353697991314
-7.965311481270302 1.0985756551575911 -6.159334987270448
5.243805506071937 6.464103667208936 4.637310654536231
11.029812826632742 9.837744733136526 -4.999870818938459
4.033232402716519 13.199466038970213 6.072254062748921
10.404985215901695 6.5390113138317805 -6.060274196750918
-9.262153231864582 18.89947851074867 0.9148175864673171
1.1155274466513398 20.07631451761527 7.645789928878194
1.429983554480589 8.764215539577883 7.5371319106620485
-9.27183726708868 11.970576030654753 -2.9914104219266866
12.410314731358332 12.014412025588069 -1.1161303130254951
-9.333041796531557 6.782727976535352 -2.669212381040315
-0.5932647871859017 18.9525961150173 -10.934564460210293
2.9486858983455075 19.336015125101618 -10.827491861501437
1.4363502973451487 0.6154946379664293 7.511009104606553
-5.965064949323353 5.539230287604494 6.17778259906206
5.762193479758982 9.718598255904585 3.6392751528551712
2.0065152260834243 18.777577252115332 -10.977533613017812
5.878741167928482 4.399728801488914 12.311739060364829
-4.279412460671166 3.8259237905856156 7.307860596717351
2.287837231006355 1.476612565972735 7.248060918100695
-8.67659138718136 20.916138137708632 -4.901834793376528
12.428729429575721 4.371818222369223 2.1377945246130756
11.386151577808805 10.734232243923092 -4.304133144087228
1.8269960667115699 4.92831859406311 -10.956354291212897
-7.043372833131428 7.125068353046333 5.168093824818725
2.546184431484025 8.852512994774854 -10.952203210580715
5.996606623297188 7.393646113196013 3.0701282425308305
3.338653273730869 20.43098035045394 6.5870873535668855
10.41904684683479 0.06837474983649824 -5.973452375543761
8.33576359374397 20.34669218426757 10.681751090988802
6.332555730233649 7.273449044939515 1.3792347775812586
2.5668217417156804 3.9079118477063366 7.039426163290244
-6.96801452561325 7.654225912241046 5.270461918404656
6.201926768662402 2.933270019758206 2.5747484818266098
-2.499573494402645 15.36355152150777 -10.516988034409001
4.5057134667388565 8.019744587846395 -10.408019683506973
10.307902913971688 5.425020507876204 8.328397465795462
-4.235250493536289 11.463206535959841 7.207935363487458
-9.244650539829532 7.505123377989657 -3.0410015900654095
4.695491289171204 0.46154531089984097 12.923626700316857
9.03755855356383 6.279030057845267 -7.654465330018272
0.5907396905954928 15.500819081398838 7.680116903874664
-9.15843664696522 12.839059963727212 -3.284589088583739
-0.17728315064653427 3.5642463673436717 7.824513327902426
9.988999431286643 2.3082557470463003 -6.55737718436894
-3.9186744806380043 18.048887151479825 7.4001582094206295
-7.885005477736365 16.81390332741502 -6.363481893516308
8.888085571219298 7.968502968714964 -7.89735789971552
7.218626795904738 9.427732434868336 11.52037649244173
-5.1413934142301985 18.982557339326547 -9.096842056909333
1.2887362873283044 9.611488161378734 7.54822570200129
1.0157259395246343 8.420905177467013 7.677889070087808
-0.6121689697581457 15.573658831939413 -10.950003168508621
2.934703585097444 17.93581163799792 -10.893614885410289
6.247579827428638 14.307714739475461 2.4902388567957625
1.8949176140634407 16.57333263128935 7.320862381012251
-8.754585027934768 20.392797663759332 -4.3173053163953625
8.687349234875368 17.7431042441474 -8.012201207054078
-9.327585376828452 2.7677325717818078 -2.6276451964201533
3.132004767744496 15.265310504503336 6.701342521390771
-4.175172309303974 6.6082680538167615 -9.763484488843082
4.3618830819133665 11.276213024596421 5.76820470439588
-1.459331540347436 7.354531629664067 -10.718513528780145
12.612463576767041 20.17947649217431 0.9470567650424392
-2.6982497090968667 0.415845185143093 -10.335893799142447
-8.131004495873782 15.282108251096528 -5.824440233954097
1.8302806936724547 11.664440034419366 7.294560051081151
11.901580029418787 8.247751238019124 5.16012188172898
1.487108492075714 18.039136081695474 13.97399695638541
10.413087372504304 0.6817192259431791 -5.991630772362056
-7.6985461518122715 15.23669813781327 -6.478864786019058
5.83066828083105 7.654703446383126 -1.489131156946585
1.366445031102277 6.524540474265526 7.65550723425237
-2.544068783080417 17.876853430274043 7.798441175187991
2.9357525185202387 5.783548928597473 6.979493813895258
-7.781527839198843 19.341920113762484 4.298482096342512
-5.221093775656898 7.06574884123516 -9.11608709668687
6.004742134448283 5.378925037809564 2.802452014244304
5.011107533493988 14.391014462415178 4.896860840562034
1.8449315595373315 13.821429421618248 7.468985106268967
-9.416738212048056 0.4227355204219917 0.2335238654919817
-9.369733969860267 4.4395926544632545 0.904847884123896
0.5610939875465702 6.059460335109196 14.086436199472352
2.4884419118373744 5.686125906940565 13.71383735109531
-7.350165666107675 19.397739271228005 4.905750703546215
3.7009239901177637 17.565055574444898 13.424245845543997
6.070889516180984 14.560185295714833 2.8864762847729244
-9.041157950591957 7.731129727462724 -3.6610849037887974
-8.185443907579318 1.4442658196294549 3.865394683639561
4.218001045966312 2.7925117775356587 13.124104832012158
12.608547593488773 15.34176831829604 0.32035281414960753
5.992104565590431 15.952402647622044 2.8760830779937514
-7.423964460663037 2.5985697642638708 4.723663086904782
